ply
format ascii 1.0
element vertex 1376
property float x
property float y
property float z
element face 0
element edge 0
end_header
62.6107128389 50.4386621334 -338.0
62.6107128389 50.4386621334 -339.0
62.6107128389 50.4386621334 -340.0
62.6107128389 50.4386621334 -341.0
62.6107128389 50.4386621334 -342.0
62.6107128389 50.4386621334 -343.0
62.6107128389 50.4386621334 -344.0
62.6107128389 50.4386621334 -345.0
62.6107128389 50.4386621334 -346.0
62.6107128389 50.4386621334 -347.0
62.6107128389 50.4386621334 -348.0
62.6107128389 50.4386621334 -349.0
62.6107128389 50.4386621334 -350.0
62.6107128389 50.4386621334 -351.0
62.6107128389 50.4386621334 -352.0
62.6107128389 50.4386621334 -353.0
61.8319726294 49.8113155895 -354.0
61.8319726294 49.8113155895 -355.0
61.8319726294 49.8113155895 -356.0
61.8319726294 49.8113155895 -357.0
61.8319726294 49.8113155895 -358.0
61.8319726294 49.8113155895 -359.0
61.05323242 49.1839690455 -360.0
61.05323242 49.1839690455 -361.0
61.8319726294 49.8113155895 -362.0
61.8319726294 49.8113155895 -363.0
61.05323242 49.1839690455 -364.0
61.05323242 49.1839690455 -365.0
61.05323242 49.1839690455 -366.0
61.05323242 49.1839690455 -367.0
61.05323242 49.1839690455 -368.0
61.05323242 49.1839690455 -369.0
61.05323242 49.1839690455 -370.0
61.05323242 49.1839690455 -371.0
61.05323242 49.1839690455 -372.0
61.05323242 49.1839690455 -373.0
61.05323242 49.1839690455 -374.0
61.05323242 49.1839690455 -375.0
60.2744922105 48.5566225016 -376.0
60.2744922105 48.5566225016 -377.0
60.2744922105 48.5566225016 -378.0
60.2744922105 48.5566225016 -379.0
60.2744922105 48.5566225016 -380.0
60.2744922105 48.5566225016 -381.0
60.2744922105 48.5566225016 -382.0
60.2744922105 48.5566225016 -383.0
60.2744922105 48.5566225016 -384.0
60.2744922105 48.5566225016 -385.0
60.2744922105 48.5566225016 -386.0
60.2744922105 48.5566225016 -387.0
60.2744922105 48.5566225016 -388.0
60.2744922105 48.5566225016 -389.0
60.2744922105 48.5566225016 -390.0
60.2744922105 48.5566225016 -391.0
59.4957520011 47.9292759576 -392.0
59.4957520011 47.9292759576 -393.0
59.4957520011 47.9292759576 -394.0
59.4957520011 47.9292759576 -395.0
59.4957520011 47.9292759576 -396.0
59.4957520011 47.9292759576 -397.0
59.4957520011 47.9292759576 -398.0
59.4957520011 47.9292759576 -399.0
59.4957520011 47.9292759576 -400.0
59.4957520011 47.9292759576 -401.0
59.4957520011 47.9292759576 -402.0
59.4957520011 47.9292759576 -403.0
59.4957520011 47.9292759576 -404.0
59.4957520011 47.9292759576 -405.0
59.4957520011 47.9292759576 -406.0
59.4957520011 47.9292759576 -407.0
59.4957520011 47.9292759576 -408.0
58.7170117917 47.3019294137 -409.0
58.7170117917 47.3019294137 -410.0
58.7170117917 47.3019294137 -411.0
58.7170117917 47.3019294137 -412.0
58.7170117917 47.3019294137 -413.0
58.7170117917 47.3019294137 -414.0
58.7170117917 47.3019294137 -415.0
58.7170117917 47.3019294137 -416.0
58.7170117917 47.3019294137 -417.0
58.7170117917 47.3019294137 -418.0
58.7170117917 47.3019294137 -419.0
58.7170117917 47.3019294137 -420.0
58.7170117917 47.3019294137 -421.0
58.7170117917 47.3019294137 -422.0
58.7170117917 47.3019294137 -423.0
58.7170117917 47.3019294137 -424.0
58.7170117917 47.3019294137 -425.0
58.7170117917 47.3019294137 -426.0
57.9382715822 46.6745828697 -427.0
57.9382715822 46.6745828697 -428.0
57.9382715822 46.6745828697 -429.0
57.9382715822 46.6745828697 -430.0
57.9382715822 46.6745828697 -431.0
57.9382715822 46.6745828697 -432.0
57.9382715822 46.6745828697 -433.0
57.9382715822 46.6745828697 -434.0
57.9382715822 46.6745828697 -435.0
57.9382715822 46.6745828697 -436.0
57.9382715822 46.6745828697 -437.0
57.1595313728 46.0472363258 -438.0
57.1595313728 46.0472363258 -439.0
57.1595313728 46.0472363258 -440.0
57.1595313728 46.0472363258 -441.0
57.1595313728 46.0472363258 -442.0
57.1595313728 46.0472363258 -443.0
57.1595313728 46.0472363258 -444.0
57.1595313728 46.0472363258 -445.0
57.1595313728 46.0472363258 -446.0
57.1595313728 46.0472363258 -447.0
57.1595313728 46.0472363258 -448.0
56.3807911634 45.4198897818 -449.0
56.3807911634 45.4198897818 -450.0
56.3807911634 45.4198897818 -451.0
56.3807911634 45.4198897818 -452.0
56.3807911634 45.4198897818 -453.0
56.3807911634 45.4198897818 -454.0
56.3807911634 45.4198897818 -455.0
56.3807911634 45.4198897818 -456.0
56.3807911634 45.4198897818 -457.0
56.3807911634 45.4198897818 -458.0
56.3807911634 45.4198897818 -459.0
56.3807911634 45.4198897818 -460.0
56.3807911634 45.4198897818 -461.0
56.3807911634 45.4198897818 -462.0
56.3807911634 45.4198897818 -463.0
55.6020509539 44.7925432379 -464.0
55.6020509539 44.7925432379 -465.0
55.6020509539 44.7925432379 -466.0
55.6020509539 44.7925432379 -467.0
55.6020509539 44.7925432379 -468.0
55.6020509539 44.7925432379 -469.0
55.6020509539 44.7925432379 -470.0
55.6020509539 44.7925432379 -471.0
55.6020509539 44.7925432379 -472.0
55.6020509539 44.7925432379 -473.0
55.6020509539 44.7925432379 -474.0
55.6020509539 44.7925432379 -475.0
55.6020509539 44.7925432379 -476.0
54.8233107445 44.1651966939 -477.0
54.8233107445 44.1651966939 -478.0
54.8233107445 44.1651966939 -479.0
54.8233107445 44.1651966939 -480.0
54.8233107445 44.1651966939 -481.0
54.8233107445 44.1651966939 -482.0
54.8233107445 44.1651966939 -483.0
54.8233107445 44.1651966939 -484.0
54.8233107445 44.1651966939 -485.0
54.8233107445 44.1651966939 -486.0
54.8233107445 44.1651966939 -487.0
54.8233107445 44.1651966939 -488.0
54.8233107445 44.1651966939 -489.0
54.044570535 43.53785015 -490.0
54.044570535 43.53785015 -491.0
54.044570535 43.53785015 -492.0
54.044570535 43.53785015 -493.0
54.044570535 43.53785015 -494.0
54.044570535 43.53785015 -495.0
54.044570535 43.53785015 -496.0
54.044570535 43.53785015 -497.0
54.044570535 43.53785015 -498.0
54.044570535 43.53785015 -499.0
54.044570535 43.53785015 -500.0
54.044570535 43.53785015 -501.0
54.044570535 43.53785015 -502.0
54.044570535 43.53785015 -503.0
54.044570535 43.53785015 -504.0
54.044570535 43.53785015 -505.0
53.2658303256 42.910503606 -506.0
53.2658303256 42.910503606 -507.0
53.2658303256 42.910503606 -508.0
53.2658303256 42.910503606 -509.0
53.2658303256 42.910503606 -510.0
53.2658303256 42.910503606 -511.0
53.2658303256 42.910503606 -512.0
53.2658303256 42.910503606 -513.0
53.2658303256 42.910503606 -514.0
53.2658303256 42.910503606 -515.0
53.2658303256 42.910503606 -516.0
53.2658303256 42.910503606 -517.0
53.2658303256 42.910503606 -518.0
53.2658303256 42.910503606 -519.0
52.4870901162 42.2831570621 -520.0
52.4870901162 42.2831570621 -521.0
52.4870901162 42.2831570621 -522.0
52.4870901162 42.2831570621 -523.0
52.4870901162 42.2831570621 -524.0
52.4870901162 42.2831570621 -525.0
52.4870901162 42.2831570621 -526.0
52.4870901162 42.2831570621 -527.0
52.4870901162 42.2831570621 -528.0
52.4870901162 42.2831570621 -529.0
52.4870901162 42.2831570621 -530.0
52.4870901162 42.2831570621 -531.0
52.4870901162 42.2831570621 -532.0
52.4870901162 42.2831570621 -533.0
52.4870901162 42.2831570621 -534.0
52.4870901162 42.2831570621 -535.0
52.4870901162 42.2831570621 -536.0
51.7083499067 41.6558105182 -537.0
51.7083499067 41.6558105182 -538.0
51.7083499067 41.6558105182 -539.0
51.7083499067 41.6558105182 -540.0
51.7083499067 41.6558105182 -541.0
51.7083499067 41.6558105182 -542.0
51.7083499067 41.6558105182 -543.0
50.9296096973 41.0284639742 -544.0
50.9296096973 41.0284639742 -545.0
50.9296096973 41.0284639742 -546.0
50.9296096973 41.0284639742 -547.0
50.9296096973 41.0284639742 -548.0
50.9296096973 41.0284639742 -549.0
50.9296096973 41.0284639742 -550.0
50.9296096973 41.0284639742 -551.0
50.9296096973 41.0284639742 -552.0
50.9296096973 41.0284639742 -553.0
50.9296096973 41.0284639742 -554.0
50.9296096973 41.0284639742 -555.0
50.9296096973 41.0284639742 -556.0
50.9296096973 41.0284639742 -557.0
50.1508694878 40.4011174303 -558.0
50.9296096973 41.0284639742 -559.0
50.1508694878 40.4011174303 -560.0
50.1508694878 40.4011174303 -561.0
50.1508694878 40.4011174303 -562.0
50.1508694878 40.4011174303 -563.0
50.1508694878 40.4011174303 -564.0
50.1508694878 40.4011174303 -565.0
50.1508694878 40.4011174303 -566.0
50.1508694878 40.4011174303 -567.0
50.1508694878 40.4011174303 -568.0
50.1508694878 40.4011174303 -569.0
50.1508694878 40.4011174303 -570.0
50.1508694878 40.4011174303 -571.0
49.3721292784 39.7737708863 -572.0
49.3721292784 39.7737708863 -573.0
49.3721292784 39.7737708863 -574.0
49.3721292784 39.7737708863 -575.0
49.3721292784 39.7737708863 -576.0
49.3721292784 39.7737708863 -577.0
49.3721292784 39.7737708863 -578.0
49.3721292784 39.7737708863 -579.0
49.3721292784 39.7737708863 -580.0
49.3721292784 39.7737708863 -581.0
49.3721292784 39.7737708863 -582.0
49.3721292784 39.7737708863 -583.0
49.3721292784 39.7737708863 -584.0
49.3721292784 39.7737708863 -585.0
49.3721292784 39.7737708863 -586.0
49.3721292784 39.7737708863 -587.0
49.3721292784 39.7737708863 -588.0
49.3721292784 39.7737708863 -589.0
49.3721292784 39.7737708863 -590.0
49.3721292784 39.7737708863 -591.0
49.3721292784 39.7737708863 -592.0
49.3721292784 39.7737708863 -593.0
48.593389069 39.1464243424 -594.0
48.593389069 39.1464243424 -595.0
48.593389069 39.1464243424 -596.0
48.593389069 39.1464243424 -597.0
48.593389069 39.1464243424 -598.0
48.593389069 39.1464243424 -599.0
48.593389069 39.1464243424 -600.0
48.593389069 39.1464243424 -601.0
47.8146488595 38.5190777984 -602.0
47.8146488595 38.5190777984 -603.0
47.8146488595 38.5190777984 -604.0
47.8146488595 38.5190777984 -605.0
47.8146488595 38.5190777984 -606.0
47.8146488595 38.5190777984 -607.0
47.8146488595 38.5190777984 -608.0
47.8146488595 38.5190777984 -609.0
47.0359086501 37.8917312545 -610.0
47.8146488595 38.5190777984 -611.0
47.8146488595 38.5190777984 -612.0
47.8146488595 38.5190777984 -613.0
47.8146488595 38.5190777984 -614.0
47.0359086501 37.8917312545 -615.0
47.0359086501 37.8917312545 -616.0
47.0359086501 37.8917312545 -617.0
47.0359086501 37.8917312545 -618.0
47.0359086501 37.8917312545 -619.0
47.0359086501 37.8917312545 -620.0
47.0359086501 37.8917312545 -621.0
47.0359086501 37.8917312545 -622.0
47.0359086501 37.8917312545 -623.0
47.0359086501 37.8917312545 -624.0
47.0359086501 37.8917312545 -625.0
47.0359086501 37.8917312545 -626.0
47.0359086501 37.8917312545 -627.0
47.0359086501 37.8917312545 -628.0
47.0359086501 37.8917312545 -629.0
47.0359086501 37.8917312545 -630.0
46.2571684407 37.2643847105 -631.0
46.2571684407 37.2643847105 -632.0
46.2571684407 37.2643847105 -633.0
46.2571684407 37.2643847105 -634.0
46.2571684407 37.2643847105 -635.0
46.2571684407 37.2643847105 -636.0
46.2571684407 37.2643847105 -637.0
45.4784282312 36.6370381666 -638.0
46.2571684407 37.2643847105 -639.0
46.2571684407 37.2643847105 -640.0
45.4784282312 36.6370381666 -641.0
45.4784282312 36.6370381666 -642.0
45.4784282312 36.6370381666 -643.0
45.4784282312 36.6370381666 -644.0
45.4784282312 36.6370381666 -645.0
45.4784282312 36.6370381666 -646.0
45.4784282312 36.6370381666 -647.0
45.4784282312 36.6370381666 -648.0
44.6996880218 36.0096916226 -649.0
43.9209478123 35.3823450787 -673.0
43.9209478123 35.3823450787 -674.0
43.1422076029 34.7549985347 -675.0
43.1422076029 34.7549985347 -676.0
43.1422076029 34.7549985347 -677.0
43.1422076029 34.7549985347 -678.0
43.1422076029 34.7549985347 -679.0
43.1422076029 34.7549985347 -680.0
43.1422076029 34.7549985347 -681.0
43.1422076029 34.7549985347 -682.0
43.1422076029 34.7549985347 -683.0
43.1422076029 34.7549985347 -684.0
43.1422076029 34.7549985347 -685.0
43.1422076029 34.7549985347 -686.0
43.1422076029 34.7549985347 -687.0
43.1422076029 34.7549985347 -688.0
43.1422076029 34.7549985347 -689.0
43.1422076029 34.7549985347 -690.0
43.1422076029 34.7549985347 -691.0
43.1422076029 34.7549985347 -692.0
43.1422076029 34.7549985347 -693.0
42.3634673935 34.1276519908 -694.0
42.3634673935 34.1276519908 -695.0
42.3634673935 34.1276519908 -696.0
42.3634673935 34.1276519908 -697.0
42.3634673935 34.1276519908 -698.0
42.3634673935 34.1276519908 -699.0
42.3634673935 34.1276519908 -700.0
42.3634673935 34.1276519908 -701.0
41.584727184 33.5003054468 -702.0
41.584727184 33.5003054468 -703.0
71.94069687 54.7420874087 -290.0
71.94069687 54.7420874087 -291.0
71.94069687 54.7420874087 -292.0
71.94069687 54.7420874087 -293.0
71.94069687 54.7420874087 -294.0
71.94069687 54.7420874087 -295.0
71.94069687 54.7420874087 -296.0
71.94069687 54.7420874087 -297.0
71.94069687 54.7420874087 -298.0
65.5742635186 49.8976548947 -302.0
65.5742635186 49.8976548947 -303.0
65.5742635186 49.8976548947 -304.0
66.3700676875 50.5032089589 -305.0
66.3700676875 50.5032089589 -306.0
66.3700676875 50.5032089589 -307.0
66.3700676875 50.5032089589 -308.0
66.3700676875 50.5032089589 -309.0
65.5742635186 49.8976548947 -310.0
65.5742635186 49.8976548947 -311.0
65.5742635186 49.8976548947 -312.0
65.5742635186 49.8976548947 -313.0
65.5742635186 49.8976548947 -314.0
65.5742635186 49.8976548947 -315.0
65.5742635186 49.8976548947 -316.0
65.5742635186 49.8976548947 -317.0
65.5742635186 49.8976548947 -318.0
65.5742635186 49.8976548947 -319.0
65.5742635186 49.8976548947 -320.0
65.5742635186 49.8976548947 -321.0
65.5742635186 49.8976548947 -322.0
64.7784593497 49.2921008304 -323.0
64.7784593497 49.2921008304 -324.0
64.7784593497 49.2921008304 -325.0
64.7784593497 49.2921008304 -326.0
64.7784593497 49.2921008304 -327.0
64.7784593497 49.2921008304 -328.0
64.7784593497 49.2921008304 -329.0
64.7784593497 49.2921008304 -330.0
64.7784593497 49.2921008304 -331.0
64.7784593497 49.2921008304 -332.0
64.7784593497 49.2921008304 -333.0
64.7784593497 49.2921008304 -334.0
64.7784593497 49.2921008304 -335.0
64.7784593497 49.2921008304 -336.0
64.7784593497 49.2921008304 -337.0
64.7784593497 49.2921008304 -338.0
64.7784593497 49.2921008304 -339.0
63.9826551808 48.6865467662 -340.0
63.9826551808 48.6865467662 -341.0
63.9826551808 48.6865467662 -342.0
63.9826551808 48.6865467662 -343.0
63.9826551808 48.6865467662 -344.0
63.9826551808 48.6865467662 -345.0
63.9826551808 48.6865467662 -346.0
63.9826551808 48.6865467662 -347.0
63.9826551808 48.6865467662 -348.0
63.9826551808 48.6865467662 -349.0
63.9826551808 48.6865467662 -350.0
63.9826551808 48.6865467662 -351.0
63.1868510119 48.0809927019 -352.0
63.1868510119 48.0809927019 -353.0
63.1868510119 48.0809927019 -354.0
63.1868510119 48.0809927019 -355.0
63.1868510119 48.0809927019 -356.0
63.1868510119 48.0809927019 -357.0
63.1868510119 48.0809927019 -358.0
63.1868510119 48.0809927019 -359.0
63.1868510119 48.0809927019 -360.0
62.391046843 47.4754386377 -361.0
62.391046843 47.4754386377 -362.0
62.391046843 47.4754386377 -363.0
62.391046843 47.4754386377 -364.0
62.391046843 47.4754386377 -365.0
62.391046843 47.4754386377 -366.0
62.391046843 47.4754386377 -367.0
62.391046843 47.4754386377 -368.0
62.391046843 47.4754386377 -369.0
62.391046843 47.4754386377 -370.0
62.391046843 47.4754386377 -371.0
62.391046843 47.4754386377 -372.0
62.391046843 47.4754386377 -373.0
62.391046843 47.4754386377 -374.0
62.391046843 47.4754386377 -375.0
62.391046843 47.4754386377 -376.0
62.391046843 47.4754386377 -377.0
62.391046843 47.4754386377 -378.0
62.391046843 47.4754386377 -379.0
61.5952426741 46.8698845734 -380.0
61.5952426741 46.8698845734 -381.0
61.5952426741 46.8698845734 -382.0
61.5952426741 46.8698845734 -383.0
61.5952426741 46.8698845734 -384.0
61.5952426741 46.8698845734 -385.0
61.5952426741 46.8698845734 -386.0
61.5952426741 46.8698845734 -387.0
60.7994385051 46.2643305092 -388.0
60.7994385051 46.2643305092 -389.0
60.7994385051 46.2643305092 -390.0
60.7994385051 46.2643305092 -391.0
60.7994385051 46.2643305092 -392.0
60.7994385051 46.2643305092 -393.0
60.7994385051 46.2643305092 -394.0
60.7994385051 46.2643305092 -395.0
60.7994385051 46.2643305092 -396.0
60.7994385051 46.2643305092 -397.0
60.7994385051 46.2643305092 -398.0
60.7994385051 46.2643305092 -399.0
60.7994385051 46.2643305092 -400.0
60.7994385051 46.2643305092 -401.0
60.7994385051 46.2643305092 -402.0
60.7994385051 46.2643305092 -403.0
60.7994385051 46.2643305092 -404.0
60.0036343362 45.6587764449 -405.0
60.0036343362 45.6587764449 -406.0
60.0036343362 45.6587764449 -407.0
60.0036343362 45.6587764449 -408.0
60.0036343362 45.6587764449 -409.0
60.0036343362 45.6587764449 -410.0
60.0036343362 45.6587764449 -411.0
60.0036343362 45.6587764449 -412.0
60.0036343362 45.6587764449 -413.0
60.0036343362 45.6587764449 -414.0
60.0036343362 45.6587764449 -415.0
60.0036343362 45.6587764449 -416.0
60.0036343362 45.6587764449 -417.0
60.0036343362 45.6587764449 -418.0
60.0036343362 45.6587764449 -419.0
60.0036343362 45.6587764449 -420.0
60.0036343362 45.6587764449 -421.0
60.0036343362 45.6587764449 -422.0
59.2078301673 45.0532223806 -423.0
59.2078301673 45.0532223806 -424.0
59.2078301673 45.0532223806 -425.0
59.2078301673 45.0532223806 -426.0
59.2078301673 45.0532223806 -427.0
59.2078301673 45.0532223806 -428.0
59.2078301673 45.0532223806 -429.0
59.2078301673 45.0532223806 -430.0
59.2078301673 45.0532223806 -431.0
59.2078301673 45.0532223806 -432.0
59.2078301673 45.0532223806 -433.0
59.2078301673 45.0532223806 -434.0
59.2078301673 45.0532223806 -435.0
59.2078301673 45.0532223806 -436.0
59.2078301673 45.0532223806 -437.0
58.4120259984 44.4476683164 -438.0
58.4120259984 44.4476683164 -439.0
58.4120259984 44.4476683164 -440.0
58.4120259984 44.4476683164 -441.0
58.4120259984 44.4476683164 -442.0
58.4120259984 44.4476683164 -443.0
58.4120259984 44.4476683164 -444.0
58.4120259984 44.4476683164 -445.0
58.4120259984 44.4476683164 -446.0
58.4120259984 44.4476683164 -447.0
57.6162218295 43.8421142521 -448.0
57.6162218295 43.8421142521 -449.0
57.6162218295 43.8421142521 -450.0
57.6162218295 43.8421142521 -451.0
57.6162218295 43.8421142521 -452.0
57.6162218295 43.8421142521 -453.0
57.6162218295 43.8421142521 -454.0
57.6162218295 43.8421142521 -455.0
57.6162218295 43.8421142521 -456.0
57.6162218295 43.8421142521 -457.0
57.6162218295 43.8421142521 -458.0
57.6162218295 43.8421142521 -459.0
57.6162218295 43.8421142521 -460.0
56.8204176606 43.2365601879 -461.0
56.8204176606 43.2365601879 -462.0
56.8204176606 43.2365601879 -463.0
56.8204176606 43.2365601879 -464.0
56.8204176606 43.2365601879 -465.0
56.8204176606 43.2365601879 -466.0
56.8204176606 43.2365601879 -467.0
56.8204176606 43.2365601879 -468.0
56.8204176606 43.2365601879 -469.0
56.8204176606 43.2365601879 -470.0
56.8204176606 43.2365601879 -471.0
56.8204176606 43.2365601879 -472.0
56.8204176606 43.2365601879 -473.0
56.8204176606 43.2365601879 -474.0
56.8204176606 43.2365601879 -475.0
56.8204176606 43.2365601879 -476.0
56.8204176606 43.2365601879 -477.0
56.0246134916 42.6310061236 -478.0
56.0246134916 42.6310061236 -479.0
56.0246134916 42.6310061236 -480.0
56.0246134916 42.6310061236 -481.0
56.0246134916 42.6310061236 -482.0
56.0246134916 42.6310061236 -483.0
56.0246134916 42.6310061236 -484.0
56.0246134916 42.6310061236 -485.0
56.0246134916 42.6310061236 -486.0
56.0246134916 42.6310061236 -487.0
56.0246134916 42.6310061236 -488.0
56.0246134916 42.6310061236 -489.0
56.0246134916 42.6310061236 -490.0
56.0246134916 42.6310061236 -491.0
55.2288093227 42.0254520594 -492.0
55.2288093227 42.0254520594 -493.0
55.2288093227 42.0254520594 -494.0
55.2288093227 42.0254520594 -495.0
55.2288093227 42.0254520594 -496.0
55.2288093227 42.0254520594 -497.0
55.2288093227 42.0254520594 -498.0
55.2288093227 42.0254520594 -499.0
55.2288093227 42.0254520594 -500.0
55.2288093227 42.0254520594 -501.0
55.2288093227 42.0254520594 -502.0
55.2288093227 42.0254520594 -503.0
54.4330051538 41.4198979951 -504.0
54.4330051538 41.4198979951 -505.0
54.4330051538 41.4198979951 -506.0
54.4330051538 41.4198979951 -507.0
54.4330051538 41.4198979951 -508.0
54.4330051538 41.4198979951 -509.0
54.4330051538 41.4198979951 -510.0
54.4330051538 41.4198979951 -511.0
54.4330051538 41.4198979951 -512.0
54.4330051538 41.4198979951 -513.0
54.4330051538 41.4198979951 -514.0
54.4330051538 41.4198979951 -515.0
54.4330051538 41.4198979951 -516.0
53.6372009849 40.8143439308 -517.0
53.6372009849 40.8143439308 -518.0
53.6372009849 40.8143439308 -519.0
53.6372009849 40.8143439308 -520.0
53.6372009849 40.8143439308 -521.0
53.6372009849 40.8143439308 -522.0
53.6372009849 40.8143439308 -523.0
53.6372009849 40.8143439308 -524.0
53.6372009849 40.8143439308 -525.0
53.6372009849 40.8143439308 -526.0
53.6372009849 40.8143439308 -527.0
53.6372009849 40.8143439308 -528.0
53.6372009849 40.8143439308 -529.0
53.6372009849 40.8143439308 -530.0
53.6372009849 40.8143439308 -531.0
53.6372009849 40.8143439308 -532.0
53.6372009849 40.8143439308 -533.0
52.841396816 40.2087898666 -534.0
52.841396816 40.2087898666 -535.0
52.841396816 40.2087898666 -536.0
52.841396816 40.2087898666 -537.0
52.841396816 40.2087898666 -538.0
52.841396816 40.2087898666 -539.0
52.841396816 40.2087898666 -540.0
52.841396816 40.2087898666 -541.0
52.841396816 40.2087898666 -542.0
52.841396816 40.2087898666 -543.0
52.0455926471 39.6032358023 -544.0
52.0455926471 39.6032358023 -545.0
52.0455926471 39.6032358023 -546.0
52.0455926471 39.6032358023 -547.0
52.0455926471 39.6032358023 -548.0
52.0455926471 39.6032358023 -549.0
52.0455926471 39.6032358023 -550.0
52.0455926471 39.6032358023 -551.0
52.0455926471 39.6032358023 -552.0
52.0455926471 39.6032358023 -553.0
52.0455926471 39.6032358023 -554.0
52.0455926471 39.6032358023 -555.0
52.0455926471 39.6032358023 -556.0
51.2497884782 38.9976817381 -557.0
51.2497884782 38.9976817381 -558.0
51.2497884782 38.9976817381 -559.0
51.2497884782 38.9976817381 -560.0
51.2497884782 38.9976817381 -561.0
51.2497884782 38.9976817381 -562.0
51.2497884782 38.9976817381 -563.0
51.2497884782 38.9976817381 -564.0
51.2497884782 38.9976817381 -565.0
51.2497884782 38.9976817381 -566.0
51.2497884782 38.9976817381 -567.0
51.2497884782 38.9976817381 -568.0
51.2497884782 38.9976817381 -569.0
51.2497884782 38.9976817381 -570.0
51.2497884782 38.9976817381 -571.0
50.4539843092 38.3921276738 -572.0
50.4539843092 38.3921276738 -573.0
50.4539843092 38.3921276738 -574.0
50.4539843092 38.3921276738 -575.0
50.4539843092 38.3921276738 -576.0
50.4539843092 38.3921276738 -577.0
50.4539843092 38.3921276738 -578.0
50.4539843092 38.3921276738 -579.0
50.4539843092 38.3921276738 -580.0
50.4539843092 38.3921276738 -581.0
50.4539843092 38.3921276738 -582.0
50.4539843092 38.3921276738 -583.0
50.4539843092 38.3921276738 -584.0
50.4539843092 38.3921276738 -585.0
50.4539843092 38.3921276738 -586.0
50.4539843092 38.3921276738 -587.0
50.4539843092 38.3921276738 -588.0
49.6581801403 37.7865736096 -589.0
49.6581801403 37.7865736096 -590.0
49.6581801403 37.7865736096 -591.0
49.6581801403 37.7865736096 -592.0
49.6581801403 37.7865736096 -593.0
49.6581801403 37.7865736096 -594.0
49.6581801403 37.7865736096 -595.0
49.6581801403 37.7865736096 -596.0
49.6581801403 37.7865736096 -597.0
49.6581801403 37.7865736096 -598.0
49.6581801403 37.7865736096 -599.0
49.6581801403 37.7865736096 -600.0
48.8623759714 37.1810195453 -601.0
48.8623759714 37.1810195453 -602.0
48.8623759714 37.1810195453 -603.0
48.8623759714 37.1810195453 -604.0
48.8623759714 37.1810195453 -605.0
48.8623759714 37.1810195453 -606.0
48.8623759714 37.1810195453 -607.0
48.8623759714 37.1810195453 -608.0
48.8623759714 37.1810195453 -609.0
48.8623759714 37.1810195453 -610.0
48.8623759714 37.1810195453 -611.0
48.8623759714 37.1810195453 -612.0
48.0665718025 36.5754654811 -613.0
48.0665718025 36.5754654811 -614.0
48.0665718025 36.5754654811 -615.0
48.0665718025 36.5754654811 -616.0
48.0665718025 36.5754654811 -617.0
48.0665718025 36.5754654811 -618.0
48.0665718025 36.5754654811 -619.0
48.0665718025 36.5754654811 -620.0
48.0665718025 36.5754654811 -621.0
48.0665718025 36.5754654811 -622.0
48.0665718025 36.5754654811 -623.0
48.0665718025 36.5754654811 -624.0
48.0665718025 36.5754654811 -625.0
48.0665718025 36.5754654811 -626.0
48.0665718025 36.5754654811 -627.0
48.0665718025 36.5754654811 -628.0
47.2707676336 35.9699114168 -629.0
47.2707676336 35.9699114168 -630.0
47.2707676336 35.9699114168 -631.0
47.2707676336 35.9699114168 -632.0
48.0665718025 36.5754654811 -633.0
47.2707676336 35.9699114168 -634.0
47.2707676336 35.9699114168 -635.0
47.2707676336 35.9699114168 -636.0
47.2707676336 35.9699114168 -637.0
47.2707676336 35.9699114168 -638.0
47.2707676336 35.9699114168 -639.0
46.4749634647 35.3643573525 -640.0
46.4749634647 35.3643573525 -641.0
46.4749634647 35.3643573525 -642.0
46.4749634647 35.3643573525 -643.0
46.4749634647 35.3643573525 -644.0
46.4749634647 35.3643573525 -645.0
46.4749634647 35.3643573525 -646.0
46.4749634647 35.3643573525 -647.0
46.4749634647 35.3643573525 -648.0
46.4749634647 35.3643573525 -649.0
46.4749634647 35.3643573525 -650.0
44.8833551268 34.153249224 -674.0
44.0875509579 33.5476951598 -675.0
44.0875509579 33.5476951598 -676.0
44.0875509579 33.5476951598 -677.0
44.0875509579 33.5476951598 -678.0
44.0875509579 33.5476951598 -679.0
44.0875509579 33.5476951598 -680.0
44.0875509579 33.5476951598 -681.0
44.0875509579 33.5476951598 -682.0
44.0875509579 33.5476951598 -683.0
44.0875509579 33.5476951598 -684.0
44.0875509579 33.5476951598 -685.0
44.0875509579 33.5476951598 -686.0
44.0875509579 33.5476951598 -687.0
44.0875509579 33.5476951598 -688.0
44.0875509579 33.5476951598 -689.0
44.0875509579 33.5476951598 -690.0
44.0875509579 33.5476951598 -691.0
44.0875509579 33.5476951598 -692.0
43.291746789 32.9421410955 -693.0
43.291746789 32.9421410955 -694.0
43.291746789 32.9421410955 -695.0
43.291746789 32.9421410955 -696.0
43.291746789 32.9421410955 -697.0
43.291746789 32.9421410955 -698.0
43.291746789 32.9421410955 -699.0
43.291746789 32.9421410955 -700.0
42.4959426201 32.3365870313 -701.0
42.4959426201 32.3365870313 -702.0
42.4959426201 32.3365870313 -703.0
73.4281656946 52.7301098304 -291.0
73.4281656946 52.7301098304 -292.0
73.4281656946 52.7301098304 -293.0
73.4281656946 52.7301098304 -294.0
73.4281656946 52.7301098304 -295.0
72.6159072245 52.1468121553 -296.0
72.6159072245 52.1468121553 -297.0
72.6159072245 52.1468121553 -298.0
72.6159072245 52.1468121553 -299.0
66.930097934 48.0637284295 -301.0
67.7423564041 48.6470261046 -302.0
67.7423564041 48.6470261046 -303.0
67.7423564041 48.6470261046 -304.0
67.7423564041 48.6470261046 -305.0
67.7423564041 48.6470261046 -306.0
66.930097934 48.0637284295 -307.0
66.930097934 48.0637284295 -308.0
66.930097934 48.0637284295 -309.0
66.930097934 48.0637284295 -310.0
66.930097934 48.0637284295 -311.0
66.930097934 48.0637284295 -312.0
66.930097934 48.0637284295 -313.0
66.930097934 48.0637284295 -314.0
66.930097934 48.0637284295 -315.0
66.930097934 48.0637284295 -316.0
66.930097934 48.0637284295 -317.0
66.930097934 48.0637284295 -318.0
66.930097934 48.0637284295 -319.0
66.930097934 48.0637284295 -320.0
66.930097934 48.0637284295 -321.0
66.930097934 48.0637284295 -322.0
66.1178394639 47.4804307544 -323.0
66.1178394639 47.4804307544 -324.0
66.1178394639 47.4804307544 -325.0
66.1178394639 47.4804307544 -326.0
66.1178394639 47.4804307544 -327.0
66.1178394639 47.4804307544 -328.0
66.1178394639 47.4804307544 -329.0
66.1178394639 47.4804307544 -330.0
66.1178394639 47.4804307544 -331.0
65.3055809939 46.8971330793 -332.0
65.3055809939 46.8971330793 -333.0
65.3055809939 46.8971330793 -334.0
65.3055809939 46.8971330793 -335.0
65.3055809939 46.8971330793 -336.0
65.3055809939 46.8971330793 -337.0
65.3055809939 46.8971330793 -338.0
65.3055809939 46.8971330793 -339.0
65.3055809939 46.8971330793 -340.0
65.3055809939 46.8971330793 -341.0
65.3055809939 46.8971330793 -342.0
65.3055809939 46.8971330793 -343.0
65.3055809939 46.8971330793 -344.0
65.3055809939 46.8971330793 -345.0
65.3055809939 46.8971330793 -346.0
64.4933225238 46.3138354042 -347.0
64.4933225238 46.3138354042 -348.0
64.4933225238 46.3138354042 -349.0
64.4933225238 46.3138354042 -350.0
64.4933225238 46.3138354042 -351.0
64.4933225238 46.3138354042 -352.0
64.4933225238 46.3138354042 -353.0
64.4933225238 46.3138354042 -354.0
64.4933225238 46.3138354042 -355.0
64.4933225238 46.3138354042 -356.0
64.4933225238 46.3138354042 -357.0
64.4933225238 46.3138354042 -358.0
64.4933225238 46.3138354042 -359.0
64.4933225238 46.3138354042 -360.0
63.6810640537 45.730537729 -361.0
63.6810640537 45.730537729 -362.0
63.6810640537 45.730537729 -363.0
63.6810640537 45.730537729 -364.0
63.6810640537 45.730537729 -365.0
63.6810640537 45.730537729 -366.0
63.6810640537 45.730537729 -367.0
63.6810640537 45.730537729 -368.0
63.6810640537 45.730537729 -369.0
63.6810640537 45.730537729 -370.0
63.6810640537 45.730537729 -371.0
63.6810640537 45.730537729 -372.0
63.6810640537 45.730537729 -373.0
63.6810640537 45.730537729 -374.0
63.6810640537 45.730537729 -375.0
63.6810640537 45.730537729 -376.0
63.6810640537 45.730537729 -377.0
63.6810640537 45.730537729 -378.0
62.8688055836 45.1472400539 -379.0
62.8688055836 45.1472400539 -380.0
62.8688055836 45.1472400539 -381.0
62.8688055836 45.1472400539 -382.0
62.8688055836 45.1472400539 -383.0
62.0565471136 44.5639423788 -384.0
62.0565471136 44.5639423788 -385.0
62.8688055836 45.1472400539 -386.0
62.0565471136 44.5639423788 -387.0
62.0565471136 44.5639423788 -388.0
62.0565471136 44.5639423788 -389.0
62.0565471136 44.5639423788 -390.0
62.0565471136 44.5639423788 -391.0
62.0565471136 44.5639423788 -392.0
62.0565471136 44.5639423788 -393.0
62.0565471136 44.5639423788 -394.0
62.0565471136 44.5639423788 -395.0
62.0565471136 44.5639423788 -396.0
62.0565471136 44.5639423788 -397.0
62.0565471136 44.5639423788 -398.0
62.0565471136 44.5639423788 -399.0
62.0565471136 44.5639423788 -400.0
62.0565471136 44.5639423788 -401.0
62.0565471136 44.5639423788 -402.0
61.2442886435 43.9806447037 -403.0
61.2442886435 43.9806447037 -404.0
61.2442886435 43.9806447037 -405.0
61.2442886435 43.9806447037 -406.0
61.2442886435 43.9806447037 -407.0
61.2442886435 43.9806447037 -408.0
61.2442886435 43.9806447037 -409.0
61.2442886435 43.9806447037 -410.0
61.2442886435 43.9806447037 -411.0
61.2442886435 43.9806447037 -412.0
61.2442886435 43.9806447037 -413.0
61.2442886435 43.9806447037 -414.0
61.2442886435 43.9806447037 -415.0
61.2442886435 43.9806447037 -416.0
61.2442886435 43.9806447037 -417.0
61.2442886435 43.9806447037 -418.0
61.2442886435 43.9806447037 -419.0
61.2442886435 43.9806447037 -420.0
61.2442886435 43.9806447037 -421.0
60.4320301734 43.3973470286 -422.0
60.4320301734 43.3973470286 -423.0
60.4320301734 43.3973470286 -424.0
60.4320301734 43.3973470286 -425.0
60.4320301734 43.3973470286 -426.0
60.4320301734 43.3973470286 -427.0
60.4320301734 43.3973470286 -428.0
60.4320301734 43.3973470286 -429.0
60.4320301734 43.3973470286 -430.0
60.4320301734 43.3973470286 -431.0
60.4320301734 43.3973470286 -432.0
60.4320301734 43.3973470286 -433.0
60.4320301734 43.3973470286 -434.0
60.4320301734 43.3973470286 -435.0
59.6197717033 42.8140493535 -436.0
59.6197717033 42.8140493535 -437.0
59.6197717033 42.8140493535 -438.0
59.6197717033 42.8140493535 -439.0
59.6197717033 42.8140493535 -440.0
59.6197717033 42.8140493535 -441.0
59.6197717033 42.8140493535 -442.0
59.6197717033 42.8140493535 -443.0
59.6197717033 42.8140493535 -444.0
59.6197717033 42.8140493535 -445.0
59.6197717033 42.8140493535 -446.0
59.6197717033 42.8140493535 -447.0
59.6197717033 42.8140493535 -448.0
59.6197717033 42.8140493535 -449.0
59.6197717033 42.8140493535 -450.0
58.8075132333 42.2307516783 -451.0
58.8075132333 42.2307516783 -452.0
58.8075132333 42.2307516783 -453.0
58.8075132333 42.2307516783 -454.0
58.8075132333 42.2307516783 -455.0
58.8075132333 42.2307516783 -456.0
58.8075132333 42.2307516783 -457.0
58.8075132333 42.2307516783 -458.0
58.8075132333 42.2307516783 -459.0
58.8075132333 42.2307516783 -460.0
58.8075132333 42.2307516783 -461.0
57.9952547632 41.6474540032 -462.0
57.9952547632 41.6474540032 -463.0
57.9952547632 41.6474540032 -464.0
57.9952547632 41.6474540032 -465.0
57.9952547632 41.6474540032 -466.0
57.9952547632 41.6474540032 -467.0
57.9952547632 41.6474540032 -468.0
57.9952547632 41.6474540032 -469.0
57.9952547632 41.6474540032 -470.0
57.9952547632 41.6474540032 -471.0
57.9952547632 41.6474540032 -472.0
57.9952547632 41.6474540032 -473.0
57.9952547632 41.6474540032 -474.0
57.9952547632 41.6474540032 -475.0
57.9952547632 41.6474540032 -476.0
57.9952547632 41.6474540032 -477.0
57.1829962931 41.0641563281 -478.0
57.1829962931 41.0641563281 -479.0
57.1829962931 41.0641563281 -480.0
57.1829962931 41.0641563281 -481.0
57.1829962931 41.0641563281 -482.0
57.1829962931 41.0641563281 -483.0
57.1829962931 41.0641563281 -484.0
57.1829962931 41.0641563281 -485.0
57.1829962931 41.0641563281 -486.0
57.1829962931 41.0641563281 -487.0
57.1829962931 41.0641563281 -488.0
57.1829962931 41.0641563281 -489.0
57.1829962931 41.0641563281 -490.0
57.1829962931 41.0641563281 -491.0
56.3707378231 40.480858653 -492.0
56.3707378231 40.480858653 -493.0
56.3707378231 40.480858653 -494.0
56.3707378231 40.480858653 -495.0
56.3707378231 40.480858653 -496.0
56.3707378231 40.480858653 -497.0
56.3707378231 40.480858653 -498.0
56.3707378231 40.480858653 -499.0
56.3707378231 40.480858653 -500.0
56.3707378231 40.480858653 -501.0
56.3707378231 40.480858653 -502.0
56.3707378231 40.480858653 -503.0
56.3707378231 40.480858653 -504.0
56.3707378231 40.480858653 -505.0
56.3707378231 40.480858653 -506.0
55.558479353 39.8975609779 -507.0
55.558479353 39.8975609779 -508.0
55.558479353 39.8975609779 -509.0
55.558479353 39.8975609779 -510.0
55.558479353 39.8975609779 -511.0
55.558479353 39.8975609779 -512.0
55.558479353 39.8975609779 -513.0
55.558479353 39.8975609779 -514.0
55.558479353 39.8975609779 -515.0
55.558479353 39.8975609779 -516.0
55.558479353 39.8975609779 -517.0
55.558479353 39.8975609779 -518.0
55.558479353 39.8975609779 -519.0
55.558479353 39.8975609779 -520.0
55.558479353 39.8975609779 -521.0
54.7462208829 39.3142633028 -522.0
54.7462208829 39.3142633028 -523.0
54.7462208829 39.3142633028 -524.0
54.7462208829 39.3142633028 -525.0
54.7462208829 39.3142633028 -526.0
54.7462208829 39.3142633028 -527.0
54.7462208829 39.3142633028 -528.0
54.7462208829 39.3142633028 -529.0
54.7462208829 39.3142633028 -530.0
54.7462208829 39.3142633028 -531.0
54.7462208829 39.3142633028 -532.0
54.7462208829 39.3142633028 -533.0
54.7462208829 39.3142633028 -534.0
53.9339624128 38.7309656277 -535.0
54.7462208829 39.3142633028 -536.0
54.7462208829 39.3142633028 -537.0
53.9339624128 38.7309656277 -538.0
53.9339624128 38.7309656277 -539.0
53.9339624128 38.7309656277 -540.0
53.9339624128 38.7309656277 -541.0
53.9339624128 38.7309656277 -542.0
53.9339624128 38.7309656277 -543.0
53.9339624128 38.7309656277 -544.0
53.1217039428 38.1476679525 -545.0
53.1217039428 38.1476679525 -546.0
53.1217039428 38.1476679525 -547.0
53.1217039428 38.1476679525 -548.0
53.1217039428 38.1476679525 -549.0
53.1217039428 38.1476679525 -550.0
53.1217039428 38.1476679525 -551.0
53.1217039428 38.1476679525 -552.0
53.1217039428 38.1476679525 -553.0
53.1217039428 38.1476679525 -554.0
53.1217039428 38.1476679525 -555.0
53.1217039428 38.1476679525 -556.0
53.1217039428 38.1476679525 -557.0
53.1217039428 38.1476679525 -558.0
53.1217039428 38.1476679525 -559.0
52.3094454727 37.5643702774 -560.0
52.3094454727 37.5643702774 -561.0
52.3094454727 37.5643702774 -562.0
52.3094454727 37.5643702774 -563.0
52.3094454727 37.5643702774 -564.0
52.3094454727 37.5643702774 -565.0
52.3094454727 37.5643702774 -566.0
52.3094454727 37.5643702774 -567.0
52.3094454727 37.5643702774 -568.0
52.3094454727 37.5643702774 -569.0
52.3094454727 37.5643702774 -570.0
51.4971870026 36.9810726023 -571.0
51.4971870026 36.9810726023 -572.0
51.4971870026 36.9810726023 -573.0
51.4971870026 36.9810726023 -574.0
51.4971870026 36.9810726023 -575.0
51.4971870026 36.9810726023 -576.0
51.4971870026 36.9810726023 -577.0
51.4971870026 36.9810726023 -578.0
51.4971870026 36.9810726023 -579.0
51.4971870026 36.9810726023 -580.0
51.4971870026 36.9810726023 -581.0
51.4971870026 36.9810726023 -582.0
51.4971870026 36.9810726023 -583.0
51.4971870026 36.9810726023 -584.0
51.4971870026 36.9810726023 -585.0
50.6849285325 36.3977749272 -586.0
50.6849285325 36.3977749272 -587.0
50.6849285325 36.3977749272 -588.0
50.6849285325 36.3977749272 -589.0
51.4971870026 36.9810726023 -590.0
51.4971870026 36.9810726023 -591.0
51.4971870026 36.9810726023 -592.0
50.6849285325 36.3977749272 -593.0
50.6849285325 36.3977749272 -594.0
50.6849285325 36.3977749272 -595.0
50.6849285325 36.3977749272 -596.0
50.6849285325 36.3977749272 -597.0
50.6849285325 36.3977749272 -598.0
50.6849285325 36.3977749272 -599.0
50.6849285325 36.3977749272 -600.0
50.6849285325 36.3977749272 -601.0
49.8726700625 35.8144772521 -602.0
49.8726700625 35.8144772521 -603.0
49.8726700625 35.8144772521 -604.0
49.8726700625 35.8144772521 -605.0
49.8726700625 35.8144772521 -606.0
49.8726700625 35.8144772521 -607.0
49.8726700625 35.8144772521 -608.0
49.8726700625 35.8144772521 -609.0
49.8726700625 35.8144772521 -610.0
49.0604115924 35.231179577 -611.0
49.0604115924 35.231179577 -612.0
49.0604115924 35.231179577 -613.0
49.0604115924 35.231179577 -614.0
49.0604115924 35.231179577 -615.0
49.0604115924 35.231179577 -616.0
49.0604115924 35.231179577 -617.0
49.0604115924 35.231179577 -618.0
49.0604115924 35.231179577 -619.0
49.0604115924 35.231179577 -620.0
49.0604115924 35.231179577 -621.0
49.0604115924 35.231179577 -622.0
49.0604115924 35.231179577 -623.0
49.0604115924 35.231179577 -624.0
48.2481531223 34.6478819018 -625.0
48.2481531223 34.6478819018 -626.0
49.0604115924 35.231179577 -627.0
49.0604115924 35.231179577 -628.0
49.0604115924 35.231179577 -629.0
48.2481531223 34.6478819018 -630.0
48.2481531223 34.6478819018 -631.0
48.2481531223 34.6478819018 -632.0
48.2481531223 34.6478819018 -633.0
48.2481531223 34.6478819018 -634.0
48.2481531223 34.6478819018 -635.0
48.2481531223 34.6478819018 -636.0
48.2481531223 34.6478819018 -637.0
48.2481531223 34.6478819018 -638.0
48.2481531223 34.6478819018 -639.0
48.2481531223 34.6478819018 -640.0
47.4358946523 34.0645842267 -641.0
47.4358946523 34.0645842267 -642.0
47.4358946523 34.0645842267 -643.0
47.4358946523 34.0645842267 -644.0
47.4358946523 34.0645842267 -645.0
47.4358946523 34.0645842267 -646.0
47.4358946523 34.0645842267 -647.0
46.6236361822 33.4812865516 -648.0
47.4358946523 34.0645842267 -649.0
44.999119242 32.3146912014 -673.0
44.999119242 32.3146912014 -674.0
44.999119242 32.3146912014 -675.0
44.999119242 32.3146912014 -676.0
44.999119242 32.3146912014 -677.0
44.999119242 32.3146912014 -678.0
44.999119242 32.3146912014 -679.0
44.999119242 32.3146912014 -680.0
44.999119242 32.3146912014 -681.0
44.999119242 32.3146912014 -682.0
44.999119242 32.3146912014 -683.0
44.999119242 32.3146912014 -684.0
44.999119242 32.3146912014 -685.0
44.186860772 31.7313935263 -686.0
44.186860772 31.7313935263 -687.0
44.186860772 31.7313935263 -688.0
44.186860772 31.7313935263 -689.0
44.186860772 31.7313935263 -690.0
44.186860772 31.7313935263 -691.0
44.186860772 31.7313935263 -692.0
44.186860772 31.7313935263 -693.0
44.186860772 31.7313935263 -694.0
44.186860772 31.7313935263 -695.0
44.186860772 31.7313935263 -696.0
44.186860772 31.7313935263 -697.0
44.186860772 31.7313935263 -698.0
44.186860772 31.7313935263 -699.0
44.186860772 31.7313935263 -700.0
44.186860772 31.7313935263 -701.0
43.3746023019 31.1480958512 -702.0
43.3746023019 31.1480958512 -703.0
74.0312913634 50.1171417687 -290.0
74.8593818708 50.6777361956 -291.0
74.0312913634 50.1171417687 -292.0
74.0312913634 50.1171417687 -293.0
74.0312913634 50.1171417687 -294.0
74.0312913634 50.1171417687 -295.0
74.0312913634 50.1171417687 -296.0
74.0312913634 50.1171417687 -297.0
74.0312913634 50.1171417687 -298.0
74.0312913634 50.1171417687 -299.0
69.0627483189 46.753575207 -301.0
68.2346578115 46.1929807801 -302.0
68.2346578115 46.1929807801 -303.0
68.2346578115 46.1929807801 -304.0
68.2346578115 46.1929807801 -305.0
68.2346578115 46.1929807801 -306.0
68.2346578115 46.1929807801 -307.0
68.2346578115 46.1929807801 -308.0
68.2346578115 46.1929807801 -309.0
68.2346578115 46.1929807801 -310.0
68.2346578115 46.1929807801 -311.0
68.2346578115 46.1929807801 -312.0
68.2346578115 46.1929807801 -313.0
68.2346578115 46.1929807801 -314.0
68.2346578115 46.1929807801 -315.0
68.2346578115 46.1929807801 -316.0
68.2346578115 46.1929807801 -317.0
68.2346578115 46.1929807801 -318.0
68.2346578115 46.1929807801 -319.0
67.4065673041 45.6323863532 -320.0
67.4065673041 45.6323863532 -321.0
67.4065673041 45.6323863532 -322.0
67.4065673041 45.6323863532 -323.0
67.4065673041 45.6323863532 -324.0
67.4065673041 45.6323863532 -325.0
67.4065673041 45.6323863532 -326.0
66.5784767966 45.0717919262 -327.0
67.4065673041 45.6323863532 -328.0
66.5784767966 45.0717919262 -329.0
66.5784767966 45.0717919262 -330.0
66.5784767966 45.0717919262 -331.0
66.5784767966 45.0717919262 -332.0
66.5784767966 45.0717919262 -333.0
66.5784767966 45.0717919262 -334.0
66.5784767966 45.0717919262 -335.0
66.5784767966 45.0717919262 -336.0
66.5784767966 45.0717919262 -337.0
66.5784767966 45.0717919262 -338.0
66.5784767966 45.0717919262 -339.0
66.5784767966 45.0717919262 -340.0
66.5784767966 45.0717919262 -341.0
65.7503862892 44.5111974993 -342.0
65.7503862892 44.5111974993 -343.0
65.7503862892 44.5111974993 -344.0
65.7503862892 44.5111974993 -345.0
65.7503862892 44.5111974993 -346.0
65.7503862892 44.5111974993 -347.0
65.7503862892 44.5111974993 -348.0
65.7503862892 44.5111974993 -349.0
65.7503862892 44.5111974993 -350.0
65.7503862892 44.5111974993 -351.0
66.5784767966 45.0717919262 -352.0
65.7503862892 44.5111974993 -353.0
65.7503862892 44.5111974993 -354.0
65.7503862892 44.5111974993 -355.0
65.7503862892 44.5111974993 -356.0
64.9222957818 43.9506030723 -357.0
65.7503862892 44.5111974993 -358.0
65.7503862892 44.5111974993 -359.0
64.9222957818 43.9506030723 -360.0
64.9222957818 43.9506030723 -361.0
64.9222957818 43.9506030723 -362.0
64.9222957818 43.9506030723 -363.0
64.9222957818 43.9506030723 -364.0
64.9222957818 43.9506030723 -365.0
64.9222957818 43.9506030723 -366.0
64.9222957818 43.9506030723 -367.0
64.0942052744 43.3900086454 -368.0
64.0942052744 43.3900086454 -369.0
64.0942052744 43.3900086454 -370.0
64.0942052744 43.3900086454 -371.0
64.0942052744 43.3900086454 -372.0
64.0942052744 43.3900086454 -373.0
64.0942052744 43.3900086454 -374.0
64.0942052744 43.3900086454 -375.0
64.0942052744 43.3900086454 -376.0
64.0942052744 43.3900086454 -377.0
64.0942052744 43.3900086454 -378.0
64.0942052744 43.3900086454 -379.0
64.0942052744 43.3900086454 -380.0
64.0942052744 43.3900086454 -381.0
64.0942052744 43.3900086454 -382.0
64.0942052744 43.3900086454 -383.0
63.2661147669 42.8294142184 -384.0
63.2661147669 42.8294142184 -385.0
63.2661147669 42.8294142184 -386.0
63.2661147669 42.8294142184 -387.0
63.2661147669 42.8294142184 -388.0
63.2661147669 42.8294142184 -389.0
63.2661147669 42.8294142184 -390.0
63.2661147669 42.8294142184 -391.0
63.2661147669 42.8294142184 -392.0
63.2661147669 42.8294142184 -393.0
63.2661147669 42.8294142184 -394.0
63.2661147669 42.8294142184 -395.0
63.2661147669 42.8294142184 -396.0
63.2661147669 42.8294142184 -397.0
62.4380242595 42.2688197915 -398.0
62.4380242595 42.2688197915 -399.0
63.2661147669 42.8294142184 -400.0
62.4380242595 42.2688197915 -401.0
62.4380242595 42.2688197915 -402.0
62.4380242595 42.2688197915 -403.0
62.4380242595 42.2688197915 -404.0
62.4380242595 42.2688197915 -405.0
62.4380242595 42.2688197915 -406.0
62.4380242595 42.2688197915 -407.0
62.4380242595 42.2688197915 -408.0
62.4380242595 42.2688197915 -409.0
62.4380242595 42.2688197915 -410.0
62.4380242595 42.2688197915 -411.0
62.4380242595 42.2688197915 -412.0
62.4380242595 42.2688197915 -413.0
62.4380242595 42.2688197915 -414.0
62.4380242595 42.2688197915 -415.0
61.6099337521 41.7082253646 -416.0
61.6099337521 41.7082253646 -417.0
61.6099337521 41.7082253646 -418.0
61.6099337521 41.7082253646 -419.0
61.6099337521 41.7082253646 -420.0
61.6099337521 41.7082253646 -421.0
61.6099337521 41.7082253646 -422.0
61.6099337521 41.7082253646 -423.0
61.6099337521 41.7082253646 -424.0
61.6099337521 41.7082253646 -425.0
61.6099337521 41.7082253646 -426.0
61.6099337521 41.7082253646 -427.0
61.6099337521 41.7082253646 -428.0
61.6099337521 41.7082253646 -429.0
61.6099337521 41.7082253646 -430.0
61.6099337521 41.7082253646 -431.0
61.6099337521 41.7082253646 -432.0
61.6099337521 41.7082253646 -433.0
61.6099337521 41.7082253646 -434.0
61.6099337521 41.7082253646 -435.0
61.6099337521 41.7082253646 -436.0
60.7818432447 41.1476309376 -437.0
60.7818432447 41.1476309376 -438.0
60.7818432447 41.1476309376 -439.0
60.7818432447 41.1476309376 -440.0
60.7818432447 41.1476309376 -441.0
60.7818432447 41.1476309376 -442.0
60.7818432447 41.1476309376 -443.0
60.7818432447 41.1476309376 -444.0
60.7818432447 41.1476309376 -445.0
60.7818432447 41.1476309376 -446.0
60.7818432447 41.1476309376 -447.0
59.9537527373 40.5870365107 -448.0
59.9537527373 40.5870365107 -449.0
59.9537527373 40.5870365107 -450.0
59.9537527373 40.5870365107 -451.0
59.9537527373 40.5870365107 -452.0
59.9537527373 40.5870365107 -453.0
59.9537527373 40.5870365107 -454.0
59.9537527373 40.5870365107 -455.0
59.9537527373 40.5870365107 -456.0
59.9537527373 40.5870365107 -457.0
59.9537527373 40.5870365107 -458.0
59.9537527373 40.5870365107 -459.0
59.1256622298 40.0264420837 -460.0
59.1256622298 40.0264420837 -461.0
59.1256622298 40.0264420837 -462.0
59.1256622298 40.0264420837 -463.0
59.1256622298 40.0264420837 -464.0
59.1256622298 40.0264420837 -465.0
59.1256622298 40.0264420837 -466.0
59.1256622298 40.0264420837 -467.0
59.1256622298 40.0264420837 -468.0
59.1256622298 40.0264420837 -469.0
59.1256622298 40.0264420837 -470.0
59.1256622298 40.0264420837 -471.0
59.1256622298 40.0264420837 -472.0
59.1256622298 40.0264420837 -473.0
58.2975717224 39.4658476568 -474.0
58.2975717224 39.4658476568 -475.0
58.2975717224 39.4658476568 -476.0
58.2975717224 39.4658476568 -477.0
58.2975717224 39.4658476568 -478.0
58.2975717224 39.4658476568 -479.0
58.2975717224 39.4658476568 -480.0
58.2975717224 39.4658476568 -481.0
58.2975717224 39.4658476568 -482.0
58.2975717224 39.4658476568 -483.0
58.2975717224 39.4658476568 -484.0
58.2975717224 39.4658476568 -485.0
58.2975717224 39.4658476568 -486.0
58.2975717224 39.4658476568 -487.0
58.2975717224 39.4658476568 -488.0
58.2975717224 39.4658476568 -489.0
58.2975717224 39.4658476568 -490.0
57.469481215 38.9052532298 -491.0
57.469481215 38.9052532298 -492.0
57.469481215 38.9052532298 -493.0
57.469481215 38.9052532298 -494.0
57.469481215 38.9052532298 -495.0
57.469481215 38.9052532298 -496.0
57.469481215 38.9052532298 -497.0
57.469481215 38.9052532298 -498.0
56.6413907076 38.3446588029 -499.0
56.6413907076 38.3446588029 -500.0
56.6413907076 38.3446588029 -501.0
56.6413907076 38.3446588029 -502.0
56.6413907076 38.3446588029 -503.0
57.469481215 38.9052532298 -504.0
56.6413907076 38.3446588029 -505.0
56.6413907076 38.3446588029 -506.0
56.6413907076 38.3446588029 -507.0
56.6413907076 38.3446588029 -508.0
56.6413907076 38.3446588029 -509.0
56.6413907076 38.3446588029 -510.0
56.6413907076 38.3446588029 -511.0
56.6413907076 38.3446588029 -512.0
56.6413907076 38.3446588029 -513.0
56.6413907076 38.3446588029 -514.0
56.6413907076 38.3446588029 -515.0
56.6413907076 38.3446588029 -516.0
55.8133002002 37.784064376 -517.0
55.8133002002 37.784064376 -518.0
55.8133002002 37.784064376 -519.0
55.8133002002 37.784064376 -520.0
55.8133002002 37.784064376 -521.0
55.8133002002 37.784064376 -522.0
55.8133002002 37.784064376 -523.0
55.8133002002 37.784064376 -524.0
55.8133002002 37.784064376 -525.0
55.8133002002 37.784064376 -526.0
55.8133002002 37.784064376 -527.0
55.8133002002 37.784064376 -528.0
55.8133002002 37.784064376 -529.0
54.9852096927 37.223469949 -530.0
54.9852096927 37.223469949 -531.0
54.9852096927 37.223469949 -532.0
54.9852096927 37.223469949 -533.0
54.9852096927 37.223469949 -534.0
54.9852096927 37.223469949 -535.0
54.9852096927 37.223469949 -536.0
54.9852096927 37.223469949 -537.0
54.9852096927 37.223469949 -538.0
54.9852096927 37.223469949 -539.0
54.9852096927 37.223469949 -540.0
54.9852096927 37.223469949 -541.0
54.9852096927 37.223469949 -542.0
54.9852096927 37.223469949 -543.0
54.1571191853 36.6628755221 -544.0
54.1571191853 36.6628755221 -545.0
54.1571191853 36.6628755221 -546.0
