ply
format ascii 1.0
element vertex 1337
property float x
property float y
property float z
element face 0
element edge 0
end_header
21.5693887369 -67.0143377906 -529.0
21.5693887369 -67.0143377906 -530.0
21.5693887369 -67.0143377906 -531.0
21.5693887369 -67.0143377906 -532.0
21.5693887369 -67.0143377906 -533.0
21.5693887369 -67.0143377906 -534.0
21.5693887369 -67.0143377906 -535.0
21.5693887369 -67.0143377906 -536.0
21.5693887369 -67.0143377906 -537.0
21.5693887369 -67.0143377906 -538.0
21.5693887369 -67.0143377906 -539.0
21.5693887369 -67.0143377906 -540.0
21.5693887369 -67.0143377906 -541.0
21.2630053741 -66.0624295834 -542.0
21.2630053741 -66.0624295834 -543.0
21.2630053741 -66.0624295834 -544.0
21.2630053741 -66.0624295834 -545.0
21.2630053741 -66.0624295834 -546.0
21.2630053741 -66.0624295834 -547.0
21.2630053741 -66.0624295834 -548.0
21.2630053741 -66.0624295834 -549.0
20.9566220114 -65.1105213761 -550.0
21.2630053741 -66.0624295834 -551.0
21.2630053741 -66.0624295834 -552.0
21.2630053741 -66.0624295834 -553.0
21.2630053741 -66.0624295834 -554.0
20.9566220114 -65.1105213761 -555.0
20.9566220114 -65.1105213761 -556.0
20.9566220114 -65.1105213761 -557.0
20.9566220114 -65.1105213761 -558.0
20.9566220114 -65.1105213761 -559.0
20.9566220114 -65.1105213761 -560.0
20.9566220114 -65.1105213761 -561.0
20.9566220114 -65.1105213761 -562.0
20.9566220114 -65.1105213761 -563.0
20.9566220114 -65.1105213761 -564.0
20.9566220114 -65.1105213761 -565.0
20.9566220114 -65.1105213761 -566.0
20.9566220114 -65.1105213761 -567.0
20.9566220114 -65.1105213761 -568.0
20.9566220114 -65.1105213761 -569.0
20.9566220114 -65.1105213761 -570.0
20.9566220114 -65.1105213761 -571.0
20.9566220114 -65.1105213761 -572.0
20.6502386486 -64.1586131689 -573.0
20.6502386486 -64.1586131689 -574.0
20.6502386486 -64.1586131689 -575.0
20.6502386486 -64.1586131689 -576.0
20.6502386486 -64.1586131689 -577.0
20.6502386486 -64.1586131689 -578.0
20.6502386486 -64.1586131689 -579.0
20.6502386486 -64.1586131689 -580.0
20.6502386486 -64.1586131689 -581.0
20.6502386486 -64.1586131689 -582.0
20.6502386486 -64.1586131689 -583.0
20.3438552859 -63.2067049616 -584.0
20.3438552859 -63.2067049616 -585.0
20.3438552859 -63.2067049616 -586.0
20.3438552859 -63.2067049616 -587.0
20.3438552859 -63.2067049616 -588.0
20.3438552859 -63.2067049616 -589.0
20.3438552859 -63.2067049616 -590.0
20.3438552859 -63.2067049616 -591.0
20.3438552859 -63.2067049616 -592.0
20.3438552859 -63.2067049616 -593.0
20.3438552859 -63.2067049616 -594.0
20.3438552859 -63.2067049616 -595.0
20.3438552859 -63.2067049616 -596.0
20.3438552859 -63.2067049616 -597.0
20.3438552859 -63.2067049616 -598.0
20.3438552859 -63.2067049616 -599.0
20.3438552859 -63.2067049616 -600.0
20.0374719232 -62.2547967544 -601.0
20.0374719232 -62.2547967544 -602.0
20.0374719232 -62.2547967544 -603.0
20.0374719232 -62.2547967544 -604.0
20.0374719232 -62.2547967544 -605.0
20.0374719232 -62.2547967544 -606.0
20.0374719232 -62.2547967544 -607.0
20.0374719232 -62.2547967544 -608.0
20.0374719232 -62.2547967544 -609.0
20.0374719232 -62.2547967544 -610.0
20.0374719232 -62.2547967544 -611.0
20.0374719232 -62.2547967544 -612.0
19.7310885604 -61.3028885471 -613.0
19.7310885604 -61.3028885471 -614.0
19.7310885604 -61.3028885471 -615.0
19.7310885604 -61.3028885471 -616.0
19.7310885604 -61.3028885471 -617.0
19.7310885604 -61.3028885471 -618.0
19.7310885604 -61.3028885471 -619.0
19.7310885604 -61.3028885471 -620.0
19.7310885604 -61.3028885471 -621.0
19.7310885604 -61.3028885471 -622.0
19.7310885604 -61.3028885471 -623.0
19.7310885604 -61.3028885471 -624.0
19.4247051977 -60.3509803399 -625.0
19.4247051977 -60.3509803399 -626.0
19.4247051977 -60.3509803399 -627.0
19.4247051977 -60.3509803399 -628.0
19.4247051977 -60.3509803399 -629.0
19.4247051977 -60.3509803399 -630.0
19.4247051977 -60.3509803399 -631.0
19.4247051977 -60.3509803399 -632.0
19.4247051977 -60.3509803399 -633.0
19.4247051977 -60.3509803399 -634.0
19.4247051977 -60.3509803399 -635.0
19.4247051977 -60.3509803399 -636.0
19.4247051977 -60.3509803399 -637.0
19.4247051977 -60.3509803399 -638.0
19.4247051977 -60.3509803399 -639.0
19.1183218349 -59.3990721326 -640.0
19.1183218349 -59.3990721326 -641.0
19.1183218349 -59.3990721326 -642.0
19.1183218349 -59.3990721326 -643.0
19.1183218349 -59.3990721326 -644.0
19.1183218349 -59.3990721326 -645.0
19.1183218349 -59.3990721326 -646.0
19.1183218349 -59.3990721326 -647.0
19.1183218349 -59.3990721326 -648.0
19.1183218349 -59.3990721326 -649.0
19.1183218349 -59.3990721326 -650.0
19.1183218349 -59.3990721326 -651.0
19.1183218349 -59.3990721326 -652.0
19.1183218349 -59.3990721326 -653.0
19.1183218349 -59.3990721326 -654.0
19.1183218349 -59.3990721326 -655.0
19.1183218349 -59.3990721326 -656.0
19.1183218349 -59.3990721326 -657.0
19.1183218349 -59.3990721326 -658.0
18.8119384722 -58.4471639254 -659.0
18.8119384722 -58.4471639254 -660.0
18.8119384722 -58.4471639254 -661.0
18.8119384722 -58.4471639254 -662.0
18.8119384722 -58.4471639254 -663.0
18.8119384722 -58.4471639254 -664.0
18.8119384722 -58.4471639254 -665.0
18.8119384722 -58.4471639254 -666.0
18.8119384722 -58.4471639254 -667.0
18.8119384722 -58.4471639254 -668.0
18.8119384722 -58.4471639254 -669.0
18.8119384722 -58.4471639254 -670.0
18.8119384722 -58.4471639254 -671.0
18.8119384722 -58.4471639254 -672.0
18.8119384722 -58.4471639254 -673.0
18.5055551095 -57.4952557181 -674.0
18.5055551095 -57.4952557181 -675.0
18.5055551095 -57.4952557181 -676.0
18.5055551095 -57.4952557181 -677.0
18.5055551095 -57.4952557181 -678.0
18.5055551095 -57.4952557181 -679.0
18.5055551095 -57.4952557181 -680.0
18.5055551095 -57.4952557181 -681.0
18.1991717467 -56.5433475109 -682.0
18.1991717467 -56.5433475109 -683.0
18.1991717467 -56.5433475109 -684.0
18.1991717467 -56.5433475109 -685.0
18.1991717467 -56.5433475109 -686.0
18.1991717467 -56.5433475109 -687.0
18.1991717467 -56.5433475109 -688.0
18.1991717467 -56.5433475109 -689.0
18.1991717467 -56.5433475109 -690.0
18.1991717467 -56.5433475109 -691.0
18.1991717467 -56.5433475109 -692.0
18.1991717467 -56.5433475109 -693.0
18.1991717467 -56.5433475109 -694.0
18.1991717467 -56.5433475109 -695.0
18.1991717467 -56.5433475109 -696.0
17.892788384 -55.5914393036 -697.0
17.892788384 -55.5914393036 -698.0
17.892788384 -55.5914393036 -699.0
17.892788384 -55.5914393036 -700.0
17.892788384 -55.5914393036 -701.0
17.892788384 -55.5914393036 -702.0
17.892788384 -55.5914393036 -703.0
17.892788384 -55.5914393036 -704.0
17.892788384 -55.5914393036 -705.0
17.5864050212 -54.6395310963 -706.0
17.892788384 -55.5914393036 -707.0
17.892788384 -55.5914393036 -708.0
17.5864050212 -54.6395310963 -709.0
17.892788384 -55.5914393036 -710.0
17.892788384 -55.5914393036 -711.0
25.5848051411 -87.7460981804 -284.0
25.8647264227 -88.7061211365 -285.0
25.5848051411 -87.7460981804 -286.0
25.8647264227 -88.7061211365 -287.0
25.8647264227 -88.7061211365 -288.0
25.8647264227 -88.7061211365 -289.0
25.8647264227 -88.7061211365 -290.0
25.8647264227 -88.7061211365 -291.0
25.8647264227 -88.7061211365 -292.0
26.1446477044 -89.6661440925 -293.0
26.1446477044 -89.6661440925 -294.0
25.8647264227 -88.7061211365 -295.0
25.5848051411 -87.7460981804 -296.0
25.0249625778 -85.8260522684 -297.0
24.7450412962 -84.8660293124 -298.0
24.4651200146 -83.9060063564 -299.0
24.1851987329 -82.9459834003 -300.0
23.9052774513 -81.9859604443 -301.0
23.6253561697 -81.0259374883 -302.0
23.6253561697 -81.0259374883 -303.0
23.9052774513 -81.9859604443 -304.0
23.6253561697 -81.0259374883 -305.0
23.6253561697 -81.0259374883 -306.0
23.6253561697 -81.0259374883 -307.0
23.6253561697 -81.0259374883 -308.0
23.3454348881 -80.0659145323 -309.0
23.3454348881 -80.0659145323 -310.0
23.3454348881 -80.0659145323 -311.0
23.3454348881 -80.0659145323 -312.0
23.6253561697 -81.0259374883 -313.0
23.6253561697 -81.0259374883 -314.0
23.6253561697 -81.0259374883 -315.0
23.9052774513 -81.9859604443 -316.0
23.9052774513 -81.9859604443 -317.0
23.6253561697 -81.0259374883 -318.0
23.6253561697 -81.0259374883 -319.0
23.6253561697 -81.0259374883 -320.0
23.6253561697 -81.0259374883 -321.0
23.6253561697 -81.0259374883 -322.0
23.6253561697 -81.0259374883 -323.0
23.6253561697 -81.0259374883 -324.0
23.3454348881 -80.0659145323 -325.0
23.3454348881 -80.0659145323 -326.0
23.3454348881 -80.0659145323 -327.0
23.3454348881 -80.0659145323 -328.0
23.3454348881 -80.0659145323 -329.0
23.3454348881 -80.0659145323 -330.0
23.3454348881 -80.0659145323 -331.0
23.3454348881 -80.0659145323 -332.0
23.3454348881 -80.0659145323 -333.0
23.3454348881 -80.0659145323 -334.0
23.3454348881 -80.0659145323 -335.0
23.3454348881 -80.0659145323 -336.0
23.3454348881 -80.0659145323 -337.0
23.3454348881 -80.0659145323 -338.0
23.3454348881 -80.0659145323 -339.0
23.0655136064 -79.1058915762 -340.0
23.0655136064 -79.1058915762 -341.0
23.0655136064 -79.1058915762 -342.0
23.3454348881 -80.0659145323 -343.0
23.0655136064 -79.1058915762 -344.0
23.0655136064 -79.1058915762 -345.0
23.0655136064 -79.1058915762 -346.0
23.0655136064 -79.1058915762 -347.0
23.0655136064 -79.1058915762 -348.0
23.0655136064 -79.1058915762 -349.0
23.0655136064 -79.1058915762 -350.0
23.0655136064 -79.1058915762 -351.0
23.0655136064 -79.1058915762 -352.0
23.0655136064 -79.1058915762 -353.0
23.0655136064 -79.1058915762 -354.0
22.7855923248 -78.1458686202 -355.0
22.7855923248 -78.1458686202 -356.0
22.7855923248 -78.1458686202 -357.0
22.7855923248 -78.1458686202 -358.0
22.7855923248 -78.1458686202 -359.0
22.7855923248 -78.1458686202 -360.0
22.7855923248 -78.1458686202 -361.0
22.7855923248 -78.1458686202 -362.0
22.7855923248 -78.1458686202 -363.0
22.7855923248 -78.1458686202 -364.0
22.7855923248 -78.1458686202 -365.0
22.7855923248 -78.1458686202 -366.0
22.7855923248 -78.1458686202 -367.0
22.7855923248 -78.1458686202 -368.0
22.7855923248 -78.1458686202 -369.0
22.7855923248 -78.1458686202 -370.0
22.5056710432 -77.1858456642 -371.0
22.5056710432 -77.1858456642 -372.0
22.5056710432 -77.1858456642 -373.0
22.5056710432 -77.1858456642 -374.0
22.5056710432 -77.1858456642 -375.0
22.5056710432 -77.1858456642 -376.0
22.5056710432 -77.1858456642 -377.0
22.5056710432 -77.1858456642 -378.0
22.5056710432 -77.1858456642 -379.0
22.5056710432 -77.1858456642 -380.0
22.5056710432 -77.1858456642 -381.0
22.5056710432 -77.1858456642 -382.0
22.5056710432 -77.1858456642 -383.0
22.5056710432 -77.1858456642 -384.0
22.5056710432 -77.1858456642 -385.0
22.5056710432 -77.1858456642 -386.0
22.5056710432 -77.1858456642 -387.0
22.2257497615 -76.2258227082 -388.0
22.2257497615 -76.2258227082 -389.0
22.2257497615 -76.2258227082 -390.0
22.2257497615 -76.2258227082 -391.0
22.2257497615 -76.2258227082 -392.0
22.2257497615 -76.2258227082 -393.0
22.2257497615 -76.2258227082 -394.0
22.2257497615 -76.2258227082 -395.0
22.2257497615 -76.2258227082 -396.0
22.2257497615 -76.2258227082 -397.0
22.2257497615 -76.2258227082 -398.0
22.2257497615 -76.2258227082 -399.0
22.2257497615 -76.2258227082 -400.0
22.2257497615 -76.2258227082 -401.0
22.2257497615 -76.2258227082 -402.0
22.2257497615 -76.2258227082 -403.0
22.2257497615 -76.2258227082 -404.0
22.2257497615 -76.2258227082 -405.0
21.9458284799 -75.2657997522 -406.0
21.9458284799 -75.2657997522 -407.0
22.2257497615 -76.2258227082 -408.0
21.9458284799 -75.2657997522 -409.0
21.9458284799 -75.2657997522 -410.0
21.9458284799 -75.2657997522 -411.0
21.9458284799 -75.2657997522 -412.0
21.9458284799 -75.2657997522 -413.0
21.9458284799 -75.2657997522 -414.0
21.9458284799 -75.2657997522 -415.0
21.9458284799 -75.2657997522 -416.0
21.9458284799 -75.2657997522 -417.0
21.6659071983 -74.3057767961 -418.0
21.6659071983 -74.3057767961 -419.0
21.6659071983 -74.3057767961 -420.0
21.6659071983 -74.3057767961 -421.0
21.6659071983 -74.3057767961 -422.0
21.6659071983 -74.3057767961 -423.0
21.6659071983 -74.3057767961 -424.0
21.6659071983 -74.3057767961 -425.0
21.6659071983 -74.3057767961 -426.0
21.6659071983 -74.3057767961 -427.0
21.6659071983 -74.3057767961 -428.0
21.6659071983 -74.3057767961 -429.0
21.6659071983 -74.3057767961 -430.0
21.6659071983 -74.3057767961 -431.0
21.6659071983 -74.3057767961 -432.0
21.6659071983 -74.3057767961 -433.0
21.6659071983 -74.3057767961 -434.0
21.3859859166 -73.3457538401 -435.0
21.3859859166 -73.3457538401 -436.0
21.3859859166 -73.3457538401 -437.0
21.3859859166 -73.3457538401 -438.0
21.3859859166 -73.3457538401 -439.0
21.3859859166 -73.3457538401 -440.0
21.3859859166 -73.3457538401 -441.0
21.3859859166 -73.3457538401 -442.0
21.3859859166 -73.3457538401 -443.0
21.3859859166 -73.3457538401 -444.0
21.3859859166 -73.3457538401 -445.0
21.106064635 -72.3857308841 -446.0
21.106064635 -72.3857308841 -447.0
21.3859859166 -73.3457538401 -448.0
21.3859859166 -73.3457538401 -449.0
21.3859859166 -73.3457538401 -450.0
21.3859859166 -73.3457538401 -451.0
21.3859859166 -73.3457538401 -452.0
21.3859859166 -73.3457538401 -453.0
21.106064635 -72.3857308841 -454.0
21.106064635 -72.3857308841 -455.0
21.106064635 -72.3857308841 -456.0
21.106064635 -72.3857308841 -457.0
21.106064635 -72.3857308841 -458.0
21.106064635 -72.3857308841 -459.0
21.106064635 -72.3857308841 -460.0
21.106064635 -72.3857308841 -461.0
21.106064635 -72.3857308841 -462.0
21.106064635 -72.3857308841 -463.0
21.106064635 -72.3857308841 -464.0
21.106064635 -72.3857308841 -465.0
21.106064635 -72.3857308841 -466.0
20.8261433534 -71.4257079281 -467.0
20.8261433534 -71.4257079281 -468.0
20.8261433534 -71.4257079281 -469.0
20.8261433534 -71.4257079281 -470.0
20.8261433534 -71.4257079281 -471.0
20.8261433534 -71.4257079281 -472.0
20.8261433534 -71.4257079281 -473.0
20.8261433534 -71.4257079281 -474.0
20.8261433534 -71.4257079281 -475.0
20.8261433534 -71.4257079281 -476.0
20.8261433534 -71.4257079281 -477.0
20.8261433534 -71.4257079281 -478.0
20.8261433534 -71.4257079281 -479.0
20.8261433534 -71.4257079281 -480.0
20.8261433534 -71.4257079281 -481.0
20.5462220717 -70.465684972 -482.0
20.5462220717 -70.465684972 -483.0
20.5462220717 -70.465684972 -484.0
20.5462220717 -70.465684972 -485.0
20.5462220717 -70.465684972 -486.0
20.5462220717 -70.465684972 -487.0
20.5462220717 -70.465684972 -488.0
20.5462220717 -70.465684972 -489.0
20.5462220717 -70.465684972 -490.0
20.5462220717 -70.465684972 -491.0
20.5462220717 -70.465684972 -492.0
20.5462220717 -70.465684972 -493.0
20.5462220717 -70.465684972 -494.0
20.5462220717 -70.465684972 -495.0
20.5462220717 -70.465684972 -496.0
20.2663007901 -69.505662016 -497.0
20.2663007901 -69.505662016 -498.0
20.2663007901 -69.505662016 -499.0
20.2663007901 -69.505662016 -500.0
20.2663007901 -69.505662016 -501.0
20.2663007901 -69.505662016 -502.0
20.2663007901 -69.505662016 -503.0
20.2663007901 -69.505662016 -504.0
20.2663007901 -69.505662016 -505.0
20.2663007901 -69.505662016 -506.0
20.2663007901 -69.505662016 -507.0
20.2663007901 -69.505662016 -508.0
20.2663007901 -69.505662016 -509.0
20.2663007901 -69.505662016 -510.0
20.2663007901 -69.505662016 -511.0
20.2663007901 -69.505662016 -512.0
20.2663007901 -69.505662016 -513.0
20.2663007901 -69.505662016 -514.0
19.9863795085 -68.54563906 -515.0
19.9863795085 -68.54563906 -516.0
19.9863795085 -68.54563906 -517.0
19.9863795085 -68.54563906 -518.0
19.9863795085 -68.54563906 -519.0
19.9863795085 -68.54563906 -520.0
19.9863795085 -68.54563906 -521.0
19.9863795085 -68.54563906 -522.0
19.9863795085 -68.54563906 -523.0
19.9863795085 -68.54563906 -524.0
19.9863795085 -68.54563906 -525.0
19.7064582268 -67.585616104 -526.0
19.7064582268 -67.585616104 -527.0
19.7064582268 -67.585616104 -528.0
19.7064582268 -67.585616104 -529.0
19.7064582268 -67.585616104 -530.0
19.7064582268 -67.585616104 -531.0
19.7064582268 -67.585616104 -532.0
19.7064582268 -67.585616104 -533.0
19.7064582268 -67.585616104 -534.0
19.7064582268 -67.585616104 -535.0
19.7064582268 -67.585616104 -536.0
19.7064582268 -67.585616104 -537.0
19.7064582268 -67.585616104 -538.0
19.7064582268 -67.585616104 -539.0
19.7064582268 -67.585616104 -540.0
19.7064582268 -67.585616104 -541.0
19.4265369452 -66.625593148 -542.0
19.4265369452 -66.625593148 -543.0
19.4265369452 -66.625593148 -544.0
19.4265369452 -66.625593148 -545.0
19.4265369452 -66.625593148 -546.0
19.4265369452 -66.625593148 -547.0
19.4265369452 -66.625593148 -548.0
19.4265369452 -66.625593148 -549.0
19.4265369452 -66.625593148 -550.0
19.4265369452 -66.625593148 -551.0
19.4265369452 -66.625593148 -552.0
19.4265369452 -66.625593148 -553.0
19.4265369452 -66.625593148 -554.0
19.4265369452 -66.625593148 -555.0
19.4265369452 -66.625593148 -556.0
19.4265369452 -66.625593148 -557.0
19.1466156636 -65.6655701919 -558.0
19.1466156636 -65.6655701919 -559.0
19.1466156636 -65.6655701919 -560.0
19.1466156636 -65.6655701919 -561.0
19.1466156636 -65.6655701919 -562.0
19.1466156636 -65.6655701919 -563.0
19.1466156636 -65.6655701919 -564.0
19.1466156636 -65.6655701919 -565.0
19.1466156636 -65.6655701919 -566.0
19.1466156636 -65.6655701919 -567.0
19.1466156636 -65.6655701919 -568.0
19.1466156636 -65.6655701919 -569.0
19.1466156636 -65.6655701919 -570.0
19.1466156636 -65.6655701919 -571.0
19.1466156636 -65.6655701919 -572.0
19.1466156636 -65.6655701919 -573.0
19.1466156636 -65.6655701919 -574.0
18.866694382 -64.7055472359 -575.0
18.866694382 -64.7055472359 -576.0
18.866694382 -64.7055472359 -577.0
18.866694382 -64.7055472359 -578.0
18.866694382 -64.7055472359 -579.0
18.866694382 -64.7055472359 -580.0
18.866694382 -64.7055472359 -581.0
18.866694382 -64.7055472359 -582.0
18.866694382 -64.7055472359 -583.0
18.5867731003 -63.7455242799 -584.0
18.5867731003 -63.7455242799 -585.0
18.5867731003 -63.7455242799 -586.0
18.5867731003 -63.7455242799 -587.0
18.5867731003 -63.7455242799 -588.0
18.5867731003 -63.7455242799 -589.0
18.5867731003 -63.7455242799 -590.0
18.5867731003 -63.7455242799 -591.0
18.5867731003 -63.7455242799 -592.0
18.5867731003 -63.7455242799 -593.0
18.5867731003 -63.7455242799 -594.0
18.5867731003 -63.7455242799 -595.0
18.5867731003 -63.7455242799 -596.0
18.5867731003 -63.7455242799 -597.0
18.5867731003 -63.7455242799 -598.0
18.5867731003 -63.7455242799 -599.0
18.5867731003 -63.7455242799 -600.0
18.5867731003 -63.7455242799 -601.0
18.3068518187 -62.7855013239 -602.0
18.3068518187 -62.7855013239 -603.0
18.3068518187 -62.7855013239 -604.0
18.3068518187 -62.7855013239 -605.0
18.3068518187 -62.7855013239 -606.0
18.3068518187 -62.7855013239 -607.0
18.3068518187 -62.7855013239 -608.0
18.3068518187 -62.7855013239 -609.0
18.3068518187 -62.7855013239 -610.0
18.3068518187 -62.7855013239 -611.0
18.0269305371 -61.8254783678 -612.0
18.0269305371 -61.8254783678 -613.0
18.0269305371 -61.8254783678 -614.0
18.0269305371 -61.8254783678 -615.0
18.0269305371 -61.8254783678 -616.0
18.0269305371 -61.8254783678 -617.0
18.0269305371 -61.8254783678 -618.0
18.0269305371 -61.8254783678 -619.0
18.0269305371 -61.8254783678 -620.0
18.0269305371 -61.8254783678 -621.0
18.0269305371 -61.8254783678 -622.0
18.0269305371 -61.8254783678 -623.0
17.7470092554 -60.8654554118 -624.0
18.0269305371 -61.8254783678 -625.0
18.0269305371 -61.8254783678 -626.0
18.0269305371 -61.8254783678 -627.0
18.0269305371 -61.8254783678 -628.0
18.0269305371 -61.8254783678 -629.0
18.0269305371 -61.8254783678 -630.0
18.0269305371 -61.8254783678 -631.0
17.7470092554 -60.8654554118 -632.0
17.7470092554 -60.8654554118 -633.0
17.7470092554 -60.8654554118 -634.0
17.7470092554 -60.8654554118 -635.0
17.7470092554 -60.8654554118 -636.0
17.7470092554 -60.8654554118 -637.0
17.7470092554 -60.8654554118 -638.0
17.7470092554 -60.8654554118 -639.0
17.7470092554 -60.8654554118 -640.0
17.4670879738 -59.9054324558 -641.0
17.4670879738 -59.9054324558 -642.0
17.4670879738 -59.9054324558 -643.0
17.7470092554 -60.8654554118 -644.0
17.4670879738 -59.9054324558 -645.0
17.4670879738 -59.9054324558 -646.0
17.4670879738 -59.9054324558 -647.0
17.4670879738 -59.9054324558 -648.0
17.4670879738 -59.9054324558 -649.0
17.4670879738 -59.9054324558 -650.0
17.4670879738 -59.9054324558 -651.0
17.4670879738 -59.9054324558 -652.0
17.4670879738 -59.9054324558 -653.0
17.4670879738 -59.9054324558 -654.0
17.4670879738 -59.9054324558 -655.0
17.4670879738 -59.9054324558 -656.0
17.4670879738 -59.9054324558 -657.0
17.1871666922 -58.9454094998 -658.0
17.1871666922 -58.9454094998 -659.0
17.1871666922 -58.9454094998 -660.0
17.1871666922 -58.9454094998 -661.0
17.1871666922 -58.9454094998 -662.0
17.1871666922 -58.9454094998 -663.0
17.1871666922 -58.9454094998 -664.0
17.1871666922 -58.9454094998 -665.0
17.1871666922 -58.9454094998 -666.0
17.1871666922 -58.9454094998 -667.0
17.1871666922 -58.9454094998 -668.0
17.1871666922 -58.9454094998 -669.0
17.1871666922 -58.9454094998 -670.0
17.1871666922 -58.9454094998 -671.0
17.1871666922 -58.9454094998 -672.0
17.1871666922 -58.9454094998 -673.0
17.1871666922 -58.9454094998 -674.0
16.9072454105 -57.9853865437 -675.0
16.9072454105 -57.9853865437 -676.0
16.9072454105 -57.9853865437 -677.0
16.9072454105 -57.9853865437 -678.0
16.9072454105 -57.9853865437 -679.0
16.9072454105 -57.9853865437 -680.0
16.9072454105 -57.9853865437 -681.0
16.9072454105 -57.9853865437 -682.0
16.9072454105 -57.9853865437 -683.0
16.9072454105 -57.9853865437 -684.0
16.6273241289 -57.0253635877 -685.0
16.6273241289 -57.0253635877 -686.0
16.6273241289 -57.0253635877 -687.0
16.6273241289 -57.0253635877 -688.0
16.6273241289 -57.0253635877 -689.0
16.6273241289 -57.0253635877 -690.0
16.6273241289 -57.0253635877 -691.0
16.6273241289 -57.0253635877 -692.0
16.6273241289 -57.0253635877 -693.0
16.6273241289 -57.0253635877 -694.0
16.6273241289 -57.0253635877 -695.0
16.6273241289 -57.0253635877 -696.0
16.3474028473 -56.0653406317 -697.0
16.3474028473 -56.0653406317 -698.0
16.3474028473 -56.0653406317 -699.0
16.3474028473 -56.0653406317 -700.0
16.3474028473 -56.0653406317 -701.0
16.3474028473 -56.0653406317 -702.0
16.3474028473 -56.0653406317 -703.0
16.3474028473 -56.0653406317 -704.0
16.3474028473 -56.0653406317 -705.0
16.3474028473 -56.0653406317 -706.0
16.3474028473 -56.0653406317 -707.0
16.3474028473 -56.0653406317 -708.0
16.3474028473 -56.0653406317 -709.0
16.3474028473 -56.0653406317 -710.0
16.3474028473 -56.0653406317 -711.0
23.1465706418 -88.420564732 -284.0
23.3998153972 -89.3879669719 -285.0
23.1465706418 -88.420564732 -286.0
23.3998153972 -89.3879669719 -287.0
23.3998153972 -89.3879669719 -288.0
23.3998153972 -89.3879669719 -289.0
23.3998153972 -89.3879669719 -290.0
23.3998153972 -89.3879669719 -291.0
23.3998153972 -89.3879669719 -292.0
23.3998153972 -89.3879669719 -293.0
23.3998153972 -89.3879669719 -294.0
23.1465706418 -88.420564732 -295.0
23.1465706418 -88.420564732 -296.0
22.8933258864 -87.453162492 -297.0
22.6400811311 -86.4857602521 -298.0
22.3868363757 -85.5183580121 -299.0
22.1335916203 -84.5509557722 -300.0
21.8803468649 -83.5835535322 -301.0
21.8803468649 -83.5835535322 -302.0
21.6271021095 -82.6161512922 -303.0
21.6271021095 -82.6161512922 -304.0
21.6271021095 -82.6161512922 -305.0
21.6271021095 -82.6161512922 -306.0
21.6271021095 -82.6161512922 -307.0
21.3738573542 -81.6487490523 -308.0
21.3738573542 -81.6487490523 -309.0
21.3738573542 -81.6487490523 -310.0
21.3738573542 -81.6487490523 -311.0
21.3738573542 -81.6487490523 -312.0
21.3738573542 -81.6487490523 -313.0
21.3738573542 -81.6487490523 -314.0
21.3738573542 -81.6487490523 -315.0
21.3738573542 -81.6487490523 -316.0
21.3738573542 -81.6487490523 -317.0
21.3738573542 -81.6487490523 -318.0
21.3738573542 -81.6487490523 -319.0
21.3738573542 -81.6487490523 -320.0
21.3738573542 -81.6487490523 -321.0
21.1206125988 -80.6813468123 -322.0
21.1206125988 -80.6813468123 -323.0
21.1206125988 -80.6813468123 -324.0
21.1206125988 -80.6813468123 -325.0
21.1206125988 -80.6813468123 -326.0
21.1206125988 -80.6813468123 -327.0
21.1206125988 -80.6813468123 -328.0
21.1206125988 -80.6813468123 -329.0
21.1206125988 -80.6813468123 -330.0
21.1206125988 -80.6813468123 -331.0
21.1206125988 -80.6813468123 -332.0
21.1206125988 -80.6813468123 -333.0
21.1206125988 -80.6813468123 -334.0
21.1206125988 -80.6813468123 -335.0
20.8673678434 -79.7139445724 -336.0
20.8673678434 -79.7139445724 -337.0
21.1206125988 -80.6813468123 -338.0
21.1206125988 -80.6813468123 -339.0
20.8673678434 -79.7139445724 -340.0
20.8673678434 -79.7139445724 -341.0
20.8673678434 -79.7139445724 -342.0
20.8673678434 -79.7139445724 -343.0
20.8673678434 -79.7139445724 -344.0
21.1206125988 -80.6813468123 -345.0
21.1206125988 -80.6813468123 -346.0
20.8673678434 -79.7139445724 -347.0
20.8673678434 -79.7139445724 -348.0
20.8673678434 -79.7139445724 -349.0
20.8673678434 -79.7139445724 -350.0
21.1206125988 -80.6813468123 -351.0
20.8673678434 -79.7139445724 -352.0
20.8673678434 -79.7139445724 -353.0
20.8673678434 -79.7139445724 -354.0
20.8673678434 -79.7139445724 -355.0
20.8673678434 -79.7139445724 -356.0
20.614123088 -78.7465423324 -357.0
20.614123088 -78.7465423324 -358.0
20.614123088 -78.7465423324 -359.0
20.614123088 -78.7465423324 -360.0
20.614123088 -78.7465423324 -361.0
20.614123088 -78.7465423324 -362.0
20.614123088 -78.7465423324 -363.0
20.614123088 -78.7465423324 -364.0
20.614123088 -78.7465423324 -365.0
20.614123088 -78.7465423324 -366.0
20.614123088 -78.7465423324 -367.0
20.614123088 -78.7465423324 -368.0
20.614123088 -78.7465423324 -369.0
20.614123088 -78.7465423324 -370.0
20.614123088 -78.7465423324 -371.0
20.614123088 -78.7465423324 -372.0
20.614123088 -78.7465423324 -373.0
20.614123088 -78.7465423324 -374.0
20.614123088 -78.7465423324 -375.0
20.614123088 -78.7465423324 -376.0
20.3608783326 -77.7791400925 -377.0
20.3608783326 -77.7791400925 -378.0
20.3608783326 -77.7791400925 -379.0
20.3608783326 -77.7791400925 -380.0
20.3608783326 -77.7791400925 -381.0
20.3608783326 -77.7791400925 -382.0
20.3608783326 -77.7791400925 -383.0
20.3608783326 -77.7791400925 -384.0
20.3608783326 -77.7791400925 -385.0
20.3608783326 -77.7791400925 -386.0
20.3608783326 -77.7791400925 -387.0
20.3608783326 -77.7791400925 -388.0
20.3608783326 -77.7791400925 -389.0
20.3608783326 -77.7791400925 -390.0
20.3608783326 -77.7791400925 -391.0
20.3608783326 -77.7791400925 -392.0
20.1076335773 -76.8117378525 -393.0
20.1076335773 -76.8117378525 -394.0
20.1076335773 -76.8117378525 -395.0
20.1076335773 -76.8117378525 -396.0
20.1076335773 -76.8117378525 -397.0
20.1076335773 -76.8117378525 -398.0
20.1076335773 -76.8117378525 -399.0
20.1076335773 -76.8117378525 -400.0
20.1076335773 -76.8117378525 -401.0
20.1076335773 -76.8117378525 -402.0
20.1076335773 -76.8117378525 -403.0
20.1076335773 -76.8117378525 -404.0
20.1076335773 -76.8117378525 -405.0
20.1076335773 -76.8117378525 -406.0
19.8543888219 -75.8443356126 -407.0
19.8543888219 -75.8443356126 -408.0
19.8543888219 -75.8443356126 -409.0
19.8543888219 -75.8443356126 -410.0
19.8543888219 -75.8443356126 -411.0
19.8543888219 -75.8443356126 -412.0
19.8543888219 -75.8443356126 -413.0
19.8543888219 -75.8443356126 -414.0
19.8543888219 -75.8443356126 -415.0
19.8543888219 -75.8443356126 -416.0
19.8543888219 -75.8443356126 -417.0
19.8543888219 -75.8443356126 -418.0
19.8543888219 -75.8443356126 -419.0
19.6011440665 -74.8769333726 -420.0
19.6011440665 -74.8769333726 -421.0
19.6011440665 -74.8769333726 -422.0
19.6011440665 -74.8769333726 -423.0
19.6011440665 -74.8769333726 -424.0
19.6011440665 -74.8769333726 -425.0
19.6011440665 -74.8769333726 -426.0
19.6011440665 -74.8769333726 -427.0
19.6011440665 -74.8769333726 -428.0
19.6011440665 -74.8769333726 -429.0
19.6011440665 -74.8769333726 -430.0
19.6011440665 -74.8769333726 -431.0
19.3478993111 -73.9095311326 -432.0
19.3478993111 -73.9095311326 -433.0
19.3478993111 -73.9095311326 -434.0
19.3478993111 -73.9095311326 -435.0
19.3478993111 -73.9095311326 -436.0
19.3478993111 -73.9095311326 -437.0
19.3478993111 -73.9095311326 -438.0
19.3478993111 -73.9095311326 -439.0
19.3478993111 -73.9095311326 -440.0
19.3478993111 -73.9095311326 -441.0
19.3478993111 -73.9095311326 -442.0
19.3478993111 -73.9095311326 -443.0
19.3478993111 -73.9095311326 -444.0
19.3478993111 -73.9095311326 -445.0
19.3478993111 -73.9095311326 -446.0
19.3478993111 -73.9095311326 -447.0
19.3478993111 -73.9095311326 -448.0
19.3478993111 -73.9095311326 -449.0
19.3478993111 -73.9095311326 -450.0
19.3478993111 -73.9095311326 -451.0
19.0946545557 -72.9421288927 -452.0
19.0946545557 -72.9421288927 -453.0
19.0946545557 -72.9421288927 -454.0
19.0946545557 -72.9421288927 -455.0
19.0946545557 -72.9421288927 -456.0
19.0946545557 -72.9421288927 -457.0
19.0946545557 -72.9421288927 -458.0
19.0946545557 -72.9421288927 -459.0
19.0946545557 -72.9421288927 -460.0
19.0946545557 -72.9421288927 -461.0
19.0946545557 -72.9421288927 -462.0
19.0946545557 -72.9421288927 -463.0
19.0946545557 -72.9421288927 -464.0
19.0946545557 -72.9421288927 -465.0
19.0946545557 -72.9421288927 -466.0
19.0946545557 -72.9421288927 -467.0
18.8414098003 -71.9747266527 -468.0
19.0946545557 -72.9421288927 -469.0
18.8414098003 -71.9747266527 -470.0
18.8414098003 -71.9747266527 -471.0
18.8414098003 -71.9747266527 -472.0
18.8414098003 -71.9747266527 -473.0
18.8414098003 -71.9747266527 -474.0
18.8414098003 -71.9747266527 -475.0
18.8414098003 -71.9747266527 -476.0
18.8414098003 -71.9747266527 -477.0
18.8414098003 -71.9747266527 -478.0
18.588165045 -71.0073244128 -479.0
18.588165045 -71.0073244128 -480.0
18.588165045 -71.0073244128 -481.0
18.588165045 -71.0073244128 -482.0
18.588165045 -71.0073244128 -483.0
18.588165045 -71.0073244128 -484.0
18.588165045 -71.0073244128 -485.0
18.588165045 -71.0073244128 -486.0
18.588165045 -71.0073244128 -487.0
18.588165045 -71.0073244128 -488.0
18.588165045 -71.0073244128 -489.0
18.588165045 -71.0073244128 -490.0
18.588165045 -71.0073244128 -491.0
18.588165045 -71.0073244128 -492.0
18.588165045 -71.0073244128 -493.0
18.588165045 -71.0073244128 -494.0
18.588165045 -71.0073244128 -495.0
18.588165045 -71.0073244128 -496.0
18.3349202896 -70.0399221728 -497.0
18.3349202896 -70.0399221728 -498.0
18.3349202896 -70.0399221728 -499.0
18.3349202896 -70.0399221728 -500.0
18.3349202896 -70.0399221728 -501.0
18.3349202896 -70.0399221728 -502.0
18.3349202896 -70.0399221728 -503.0
18.3349202896 -70.0399221728 -504.0
18.3349202896 -70.0399221728 -505.0
18.3349202896 -70.0399221728 -506.0
18.3349202896 -70.0399221728 -507.0
18.3349202896 -70.0399221728 -508.0
18.3349202896 -70.0399221728 -509.0
18.3349202896 -70.0399221728 -510.0
18.3349202896 -70.0399221728 -511.0
18.3349202896 -70.0399221728 -512.0
18.3349202896 -70.0399221728 -513.0
18.3349202896 -70.0399221728 -514.0
18.3349202896 -70.0399221728 -515.0
18.0816755342 -69.0725199329 -516.0
18.0816755342 -69.0725199329 -517.0
18.0816755342 -69.0725199329 -518.0
18.0816755342 -69.0725199329 -519.0
18.0816755342 -69.0725199329 -520.0
18.0816755342 -69.0725199329 -521.0
18.0816755342 -69.0725199329 -522.0
18.0816755342 -69.0725199329 -523.0
18.0816755342 -69.0725199329 -524.0
18.0816755342 -69.0725199329 -525.0
18.0816755342 -69.0725199329 -526.0
17.8284307788 -68.1051176929 -527.0
17.8284307788 -68.1051176929 -528.0
18.0816755342 -69.0725199329 -529.0
18.0816755342 -69.0725199329 -530.0
17.8284307788 -68.1051176929 -531.0
17.8284307788 -68.1051176929 -532.0
17.8284307788 -68.1051176929 -533.0
17.8284307788 -68.1051176929 -534.0
17.8284307788 -68.1051176929 -535.0
17.8284307788 -68.1051176929 -536.0
17.8284307788 -68.1051176929 -537.0
17.8284307788 -68.1051176929 -538.0
17.8284307788 -68.1051176929 -539.0
17.8284307788 -68.1051176929 -540.0
17.8284307788 -68.1051176929 -541.0
17.8284307788 -68.1051176929 -542.0
17.8284307788 -68.1051176929 -543.0
17.5751860234 -67.137715453 -544.0
17.5751860234 -67.137715453 -545.0
17.5751860234 -67.137715453 -546.0
17.5751860234 -67.137715453 -547.0
17.5751860234 -67.137715453 -548.0
17.5751860234 -67.137715453 -549.0
17.5751860234 -67.137715453 -550.0
17.5751860234 -67.137715453 -551.0
17.5751860234 -67.137715453 -552.0
17.5751860234 -67.137715453 -553.0
17.5751860234 -67.137715453 -554.0
17.5751860234 -67.137715453 -555.0
17.5751860234 -67.137715453 -556.0
17.5751860234 -67.137715453 -557.0
17.3219412681 -66.170313213 -558.0
17.3219412681 -66.170313213 -559.0
17.3219412681 -66.170313213 -560.0
17.3219412681 -66.170313213 -561.0
17.3219412681 -66.170313213 -562.0
17.3219412681 -66.170313213 -563.0
17.3219412681 -66.170313213 -564.0
17.3219412681 -66.170313213 -565.0
17.3219412681 -66.170313213 -566.0
17.3219412681 -66.170313213 -567.0
17.3219412681 -66.170313213 -568.0
17.3219412681 -66.170313213 -569.0
17.3219412681 -66.170313213 -570.0
17.3219412681 -66.170313213 -571.0
17.3219412681 -66.170313213 -572.0
17.3219412681 -66.170313213 -573.0
17.3219412681 -66.170313213 -574.0
17.3219412681 -66.170313213 -575.0
17.0686965127 -65.202910973 -576.0
17.0686965127 -65.202910973 -577.0
17.0686965127 -65.202910973 -578.0
17.0686965127 -65.202910973 -579.0
17.0686965127 -65.202910973 -580.0
17.0686965127 -65.202910973 -581.0
17.0686965127 -65.202910973 -582.0
17.0686965127 -65.202910973 -583.0
17.0686965127 -65.202910973 -584.0
17.0686965127 -65.202910973 -585.0
17.0686965127 -65.202910973 -586.0
16.8154517573 -64.2355087331 -587.0
16.8154517573 -64.2355087331 -588.0
16.8154517573 -64.2355087331 -589.0
16.8154517573 -64.2355087331 -590.0
16.8154517573 -64.2355087331 -591.0
16.8154517573 -64.2355087331 -592.0
16.8154517573 -64.2355087331 -593.0
16.8154517573 -64.2355087331 -594.0
16.8154517573 -64.2355087331 -595.0
16.8154517573 -64.2355087331 -596.0
16.8154517573 -64.2355087331 -597.0
16.8154517573 -64.2355087331 -598.0
16.8154517573 -64.2355087331 -599.0
16.8154517573 -64.2355087331 -600.0
16.8154517573 -64.2355087331 -601.0
16.8154517573 -64.2355087331 -602.0
16.8154517573 -64.2355087331 -603.0
16.5622070019 -63.2681064931 -604.0
16.5622070019 -63.2681064931 -605.0
16.5622070019 -63.2681064931 -606.0
16.5622070019 -63.2681064931 -607.0
16.5622070019 -63.2681064931 -608.0
16.5622070019 -63.2681064931 -609.0
16.5622070019 -63.2681064931 -610.0
16.3089622465 -62.3007042532 -611.0
16.3089622465 -62.3007042532 -612.0
16.3089622465 -62.3007042532 -613.0
16.3089622465 -62.3007042532 -614.0
16.3089622465 -62.3007042532 -615.0
16.3089622465 -62.3007042532 -616.0
16.3089622465 -62.3007042532 -617.0
16.3089622465 -62.3007042532 -618.0
16.3089622465 -62.3007042532 -619.0
16.3089622465 -62.3007042532 -620.0
16.3089622465 -62.3007042532 -621.0
16.3089622465 -62.3007042532 -622.0
16.3089622465 -62.3007042532 -623.0
16.3089622465 -62.3007042532 -624.0
16.3089622465 -62.3007042532 -625.0
16.3089622465 -62.3007042532 -626.0
16.3089622465 -62.3007042532 -627.0
16.3089622465 -62.3007042532 -628.0
16.3089622465 -62.3007042532 -629.0
16.3089622465 -62.3007042532 -630.0
16.3089622465 -62.3007042532 -631.0
16.0557174912 -61.3333020132 -632.0
16.0557174912 -61.3333020132 -633.0
16.0557174912 -61.3333020132 -634.0
16.0557174912 -61.3333020132 -635.0
16.0557174912 -61.3333020132 -636.0
16.0557174912 -61.3333020132 -637.0
16.0557174912 -61.3333020132 -638.0
16.0557174912 -61.3333020132 -639.0
15.8024727358 -60.3658997733 -640.0
15.8024727358 -60.3658997733 -641.0
15.8024727358 -60.3658997733 -642.0
15.8024727358 -60.3658997733 -643.0
15.8024727358 -60.3658997733 -644.0
15.8024727358 -60.3658997733 -645.0
15.8024727358 -60.3658997733 -646.0
15.8024727358 -60.3658997733 -647.0
15.8024727358 -60.3658997733 -648.0
15.8024727358 -60.3658997733 -649.0
15.8024727358 -60.3658997733 -650.0
15.8024727358 -60.3658997733 -651.0
15.8024727358 -60.3658997733 -652.0
15.8024727358 -60.3658997733 -653.0
15.8024727358 -60.3658997733 -654.0
15.8024727358 -60.3658997733 -655.0
15.8024727358 -60.3658997733 -656.0
15.8024727358 -60.3658997733 -657.0
15.8024727358 -60.3658997733 -658.0
15.8024727358 -60.3658997733 -659.0
15.5492279804 -59.3984975333 -660.0
15.5492279804 -59.3984975333 -661.0
15.5492279804 -59.3984975333 -662.0
15.5492279804 -59.3984975333 -663.0
15.5492279804 -59.3984975333 -664.0
15.5492279804 -59.3984975333 -665.0
15.5492279804 -59.3984975333 -666.0
15.5492279804 -59.3984975333 -667.0
15.5492279804 -59.3984975333 -668.0
15.5492279804 -59.3984975333 -669.0
15.5492279804 -59.3984975333 -670.0
15.5492279804 -59.3984975333 -671.0
15.5492279804 -59.3984975333 -672.0
15.5492279804 -59.3984975333 -673.0
15.295983225 -58.4310952933 -674.0
15.295983225 -58.4310952933 -675.0
15.295983225 -58.4310952933 -676.0
15.295983225 -58.4310952933 -677.0
15.295983225 -58.4310952933 -678.0
15.295983225 -58.4310952933 -679.0
15.295983225 -58.4310952933 -680.0
15.295983225 -58.4310952933 -681.0
15.295983225 -58.4310952933 -682.0
15.295983225 -58.4310952933 -683.0
15.295983225 -58.4310952933 -684.0
15.295983225 -58.4310952933 -685.0
15.0427384696 -57.4636930534 -686.0
15.0427384696 -57.4636930534 -687.0
15.0427384696 -57.4636930534 -688.0
15.0427384696 -57.4636930534 -689.0
15.0427384696 -57.4636930534 -690.0
15.0427384696 -57.4636930534 -691.0
15.0427384696 -57.4636930534 -692.0
15.0427384696 -57.4636930534 -693.0
15.0427384696 -57.4636930534 -694.0
15.0427384696 -57.4636930534 -695.0
15.0427384696 -57.4636930534 -696.0
14.7894937143 -56.4962908134 -697.0
14.7894937143 -56.4962908134 -698.0
14.7894937143 -56.4962908134 -699.0
14.7894937143 -56.4962908134 -700.0
14.7894937143 -56.4962908134 -701.0
14.7894937143 -56.4962908134 -702.0
14.7894937143 -56.4962908134 -703.0
14.7894937143 -56.4962908134 -704.0
14.7894937143 -56.4962908134 -705.0
14.7894937143 -56.4962908134 -706.0
14.7894937143 -56.4962908134 -707.0
14.7894937143 -56.4962908134 -708.0
14.7894937143 -56.4962908134 -709.0
14.7894937143 -56.4962908134 -710.0
14.7894937143 -56.4962908134 -711.0
20.9169779864 -90.0013335008 -284.0
20.9169779864 -90.0013335008 -285.0
20.9169779864 -90.0013335008 -286.0
20.9169779864 -90.0013335008 -287.0
20.9169779864 -90.0013335008 -288.0
20.9169779864 -90.0013335008 -289.0
20.9169779864 -90.0013335008 -290.0
20.9169779864 -90.0013335008 -291.0
20.9169779864 -90.0013335008 -292.0
20.9169779864 -90.0013335008 -293.0
20.9169779864 -90.0013335008 -294.0
20.9169779864 -90.0013335008 -295.0
20.9169779864 -90.0013335008 -296.0
20.6906037658 -89.0272930949 -297.0
20.2378553245 -87.0792122832 -298.0
20.0114811039 -86.1051718774 -299.0
19.7851068832 -85.1311314715 -300.0
19.5587326626 -84.1570910657 -301.0
19.5587326626 -84.1570910657 -302.0
19.332358442 -83.1830506598 -303.0
19.332358442 -83.1830506598 -304.0
19.332358442 -83.1830506598 -305.0
19.332358442 -83.1830506598 -306.0
19.332358442 -83.1830506598 -307.0
19.1059842214 -82.2090102539 -308.0
19.1059842214 -82.2090102539 -309.0
19.1059842214 -82.2090102539 -310.0
19.332358442 -83.1830506598 -311.0
19.332358442 -83.1830506598 -312.0
19.332358442 -83.1830506598 -313.0
19.1059842214 -82.2090102539 -314.0
19.1059842214 -82.2090102539 -315.0
19.1059842214 -82.2090102539 -316.0
19.1059842214 -82.2090102539 -317.0
19.1059842214 -82.2090102539 -318.0
19.1059842214 -82.2090102539 -319.0
19.1059842214 -82.2090102539 -320.0
19.1059842214 -82.2090102539 -321.0
19.1059842214 -82.2090102539 -322.0
19.1059842214 -82.2090102539 -323.0
19.1059842214 -82.2090102539 -324.0
19.1059842214 -82.2090102539 -325.0
19.1059842214 -82.2090102539 -326.0
19.1059842214 -82.2090102539 -327.0
19.1059842214 -82.2090102539 -328.0
19.1059842214 -82.2090102539 -329.0
18.8796100007 -81.2349698481 -330.0
18.8796100007 -81.2349698481 -331.0
18.8796100007 -81.2349698481 -332.0
18.8796100007 -81.2349698481 -333.0
18.8796100007 -81.2349698481 -334.0
18.8796100007 -81.2349698481 -335.0
18.6532357801 -80.2609294422 -336.0
18.8796100007 -81.2349698481 -337.0
18.8796100007 -81.2349698481 -338.0
18.8796100007 -81.2349698481 -339.0
18.8796100007 -81.2349698481 -340.0
18.8796100007 -81.2349698481 -341.0
18.6532357801 -80.2609294422 -342.0
18.6532357801 -80.2609294422 -343.0
18.6532357801 -80.2609294422 -344.0
18.6532357801 -80.2609294422 -345.0
18.6532357801 -80.2609294422 -346.0
18.6532357801 -80.2609294422 -347.0
18.6532357801 -80.2609294422 -348.0
18.8796100007 -81.2349698481 -349.0
18.8796100007 -81.2349698481 -350.0
18.8796100007 -81.2349698481 -351.0
18.8796100007 -81.2349698481 -352.0
18.6532357801 -80.2609294422 -353.0
18.6532357801 -80.2609294422 -354.0
18.6532357801 -80.2609294422 -355.0
18.6532357801 -80.2609294422 -356.0
18.6532357801 -80.2609294422 -357.0
18.6532357801 -80.2609294422 -358.0
18.6532357801 -80.2609294422 -359.0
18.6532357801 -80.2609294422 -360.0
18.6532357801 -80.2609294422 -361.0
18.4268615595 -79.2868890364 -362.0
18.4268615595 -79.2868890364 -363.0
18.4268615595 -79.2868890364 -364.0
18.4268615595 -79.2868890364 -365.0
18.4268615595 -79.2868890364 -366.0
18.4268615595 -79.2868890364 -367.0
18.4268615595 -79.2868890364 -368.0
18.4268615595 -79.2868890364 -369.0
18.4268615595 -79.2868890364 -370.0
18.4268615595 -79.2868890364 -371.0
18.2004873388 -78.3128486305 -372.0
18.4268615595 -79.2868890364 -373.0
18.4268615595 -79.2868890364 -374.0
18.4268615595 -79.2868890364 -375.0
18.4268615595 -79.2868890364 -376.0
18.4268615595 -79.2868890364 -377.0
18.2004873388 -78.3128486305 -378.0
18.2004873388 -78.3128486305 -379.0
18.4268615595 -79.2868890364 -380.0
18.4268615595 -79.2868890364 -381.0
18.4268615595 -79.2868890364 -382.0
18.2004873388 -78.3128486305 -383.0
18.2004873388 -78.3128486305 -384.0
18.2004873388 -78.3128486305 -385.0
18.2004873388 -78.3128486305 -386.0
18.2004873388 -78.3128486305 -387.0
18.2004873388 -78.3128486305 -388.0
18.2004873388 -78.3128486305 -389.0
18.2004873388 -78.3128486305 -390.0
18.2004873388 -78.3128486305 -391.0
18.2004873388 -78.3128486305 -392.0
18.2004873388 -78.3128486305 -393.0
17.9741131182 -77.3388082247 -394.0
17.9741131182 -77.3388082247 -395.0
17.9741131182 -77.3388082247 -396.0
17.9741131182 -77.3388082247 -397.0
17.9741131182 -77.3388082247 -398.0
17.9741131182 -77.3388082247 -399.0
17.9741131182 -77.3388082247 -400.0
17.9741131182 -77.3388082247 -401.0
17.9741131182 -77.3388082247 -402.0
17.9741131182 -77.3388082247 -403.0
17.9741131182 -77.3388082247 -404.0
17.9741131182 -77.3388082247 -405.0
17.9741131182 -77.3388082247 -406.0
17.9741131182 -77.3388082247 -407.0
17.9741131182 -77.3388082247 -408.0
17.9741131182 -77.3388082247 -409.0
17.9741131182 -77.3388082247 -410.0
17.9741131182 -77.3388082247 -411.0
17.7477388976 -76.3647678188 -412.0
17.7477388976 -76.3647678188 -413.0
17.7477388976 -76.3647678188 -414.0
17.7477388976 -76.3647678188 -415.0
17.7477388976 -76.3647678188 -416.0
17.7477388976 -76.3647678188 -417.0
17.7477388976 -76.3647678188 -418.0
17.7477388976 -76.3647678188 -419.0
17.5213646769 -75.390727413 -420.0
17.5213646769 -75.390727413 -421.0
17.5213646769 -75.390727413 -422.0
17.5213646769 -75.390727413 -423.0
17.7477388976 -76.3647678188 -424.0
17.5213646769 -75.390727413 -425.0
17.5213646769 -75.390727413 -426.0
17.5213646769 -75.390727413 -427.0
17.5213646769 -75.390727413 -428.0
17.5213646769 -75.390727413 -429.0
17.5213646769 -75.390727413 -430.0
17.5213646769 -75.390727413 -431.0
17.5213646769 -75.390727413 -432.0
17.5213646769 -75.390727413 -433.0
17.5213646769 -75.390727413 -434.0
17.2949904563 -74.4166870071 -435.0
17.2949904563 -74.4166870071 -436.0
17.2949904563 -74.4166870071 -437.0
17.2949904563 -74.4166870071 -438.0
17.2949904563 -74.4166870071 -439.0
17.2949904563 -74.4166870071 -440.0
17.2949904563 -74.4166870071 -441.0
17.2949904563 -74.4166870071 -442.0
17.2949904563 -74.4166870071 -443.0
17.2949904563 -74.4166870071 -444.0
17.2949904563 -74.4166870071 -445.0
17.2949904563 -74.4166870071 -446.0
17.2949904563 -74.4166870071 -447.0
17.2949904563 -74.4166870071 -448.0
17.2949904563 -74.4166870071 -449.0
17.2949904563 -74.4166870071 -450.0
17.2949904563 -74.4166870071 -451.0
17.2949904563 -74.4166870071 -452.0
17.2949904563 -74.4166870071 -453.0
17.2949904563 -74.4166870071 -454.0
17.2949904563 -74.4166870071 -455.0
17.2949904563 -74.4166870071 -456.0
17.2949904563 -74.4166870071 -457.0
17.2949904563 -74.4166870071 -458.0
17.2949904563 -74.4166870071 -459.0
17.0686162357 -73.4426466013 -460.0
17.0686162357 -73.4426466013 -461.0
17.0686162357 -73.4426466013 -462.0
17.0686162357 -73.4426466013 -463.0
17.0686162357 -73.4426466013 -464.0
17.0686162357 -73.4426466013 -465.0
17.0686162357 -73.4426466013 -466.0
17.0686162357 -73.4426466013 -467.0
17.0686162357 -73.4426466013 -468.0
17.0686162357 -73.4426466013 -469.0
16.842242015 -72.4686061954 -470.0
16.842242015 -72.4686061954 -471.0
16.842242015 -72.4686061954 -472.0
16.842242015 -72.4686061954 -473.0
16.842242015 -72.4686061954 -474.0
16.842242015 -72.4686061954 -475.0
16.842242015 -72.4686061954 -476.0
16.842242015 -72.4686061954 -477.0
16.842242015 -72.4686061954 -478.0
16.842242015 -72.4686061954 -479.0
16.842242015 -72.4686061954 -480.0
16.842242015 -72.4686061954 -481.0
16.842242015 -72.4686061954 -482.0
16.842242015 -72.4686061954 -483.0
16.842242015 -72.4686061954 -484.0
16.842242015 -72.4686061954 -485.0
16.842242015 -72.4686061954 -486.0
16.842242015 -72.4686061954 -487.0
16.842242015 -72.4686061954 -488.0
16.842242015 -72.4686061954 -489.0
16.6158677944 -71.4945657896 -490.0
16.6158677944 -71.4945657896 -491.0
16.6158677944 -71.4945657896 -492.0
16.6158677944 -71.4945657896 -493.0
16.6158677944 -71.4945657896 -494.0
16.6158677944 -71.4945657896 -495.0
16.6158677944 -71.4945657896 -496.0
16.6158677944 -71.4945657896 -497.0
16.6158677944 -71.4945657896 -498.0
16.6158677944 -71.4945657896 -499.0
16.6158677944 -71.4945657896 -500.0
16.3894935738 -70.5205253837 -501.0
16.3894935738 -70.5205253837 -502.0
16.3894935738 -70.5205253837 -503.0
16.3894935738 -70.5205253837 -504.0
16.3894935738 -70.5205253837 -505.0
16.3894935738 -70.5205253837 -506.0
16.3894935738 -70.5205253837 -507.0
16.3894935738 -70.5205253837 -508.0
16.3894935738 -70.5205253837 -509.0
16.3894935738 -70.5205253837 -510.0
16.3894935738 -70.5205253837 -511.0
16.3894935738 -70.5205253837 -512.0
16.3894935738 -70.5205253837 -513.0
16.3894935738 -70.5205253837 -514.0
16.3894935738 -70.5205253837 -515.0
16.3894935738 -70.5205253837 -516.0
16.3894935738 -70.5205253837 -517.0
16.1631193531 -69.5464849779 -518.0
16.1631193531 -69.5464849779 -519.0
16.1631193531 -69.5464849779 -520.0
16.1631193531 -69.5464849779 -521.0
16.1631193531 -69.5464849779 -522.0
16.1631193531 -69.5464849779 -523.0
16.1631193531 -69.5464849779 -524.0
16.1631193531 -69.5464849779 -525.0
16.1631193531 -69.5464849779 -526.0
16.1631193531 -69.5464849779 -527.0
16.1631193531 -69.5464849779 -528.0
16.1631193531 -69.5464849779 -529.0
15.9367451325 -68.572444572 -530.0
16.1631193531 -69.5464849779 -531.0
15.9367451325 -68.572444572 -532.0
15.9367451325 -68.572444572 -533.0
15.9367451325 -68.572444572 -534.0
15.9367451325 -68.572444572 -535.0
15.9367451325 -68.572444572 -536.0
15.9367451325 -68.572444572 -537.0
15.9367451325 -68.572444572 -538.0
15.9367451325 -68.572444572 -539.0
15.9367451325 -68.572444572 -540.0
15.9367451325 -68.572444572 -541.0
15.9367451325 -68.572444572 -542.0
15.7103709119 -67.5984041662 -543.0
15.7103709119 -67.5984041662 -544.0
15.9367451325 -68.572444572 -545.0
15.9367451325 -68.572444572 -546.0
15.7103709119 -67.5984041662 -547.0
15.7103709119 -67.5984041662 -548.0
15.7103709119 -67.5984041662 -549.0
15.7103709119 -67.5984041662 -550.0
15.7103709119 -67.5984041662 -551.0
15.7103709119 -67.5984041662 -552.0
15.7103709119 -67.5984041662 -553.0
15.7103709119 -67.5984041662 -554.0
15.7103709119 -67.5984041662 -555.0
15.7103709119 -67.5984041662 -556.0
15.7103709119 -67.5984041662 -557.0
15.7103709119 -67.5984041662 -558.0
15.7103709119 -67.5984041662 -559.0
15.7103709119 -67.5984041662 -560.0
15.7103709119 -67.5984041662 -561.0
15.4839966912 -66.6243637603 -562.0
15.4839966912 -66.6243637603 -563.0
15.4839966912 -66.6243637603 -564.0
15.4839966912 -66.6243637603 -565.0
15.4839966912 -66.6243637603 -566.0
15.4839966912 -66.6243637603 -567.0
15.4839966912 -66.6243637603 -568.0
15.4839966912 -66.6243637603 -569.0
15.4839966912 -66.6243637603 -570.0
15.4839966912 -66.6243637603 -571.0
15.4839966912 -66.6243637603 -572.0
15.4839966912 -66.6243637603 -573.0
15.2576224706 -65.6503233545 -574.0
15.2576224706 -65.6503233545 -575.0
15.2576224706 -65.6503233545 -576.0
15.2576224706 -65.6503233545 -577.0
15.2576224706 -65.6503233545 -578.0
15.2576224706 -65.6503233545 -579.0
15.2576224706 -65.6503233545 -580.0
15.2576224706 -65.6503233545 -581.0
