ply
format ascii 1.0
element vertex 1301
property float x
property float y
property float z
element face 0
element edge 0
end_header
-49.3722511973 -36.5012439749 -639.0
-49.3722511973 -36.5012439749 -640.0
-49.3722511973 -36.5012439749 -641.0
-49.3722511973 -36.5012439749 -642.0
-48.5681428716 -35.906761174 -643.0
-48.5681428716 -35.906761174 -644.0
-48.5681428716 -35.906761174 -645.0
-47.7640345459 -35.3122783731 -646.0
-46.9599262202 -34.7177955722 -647.0
-46.9599262202 -34.7177955722 -648.0
-46.9599262202 -34.7177955722 -649.0
-46.9599262202 -34.7177955722 -650.0
-46.1558178945 -34.1233127713 -651.0
-46.1558178945 -34.1233127713 -652.0
-45.3517095688 -33.5288299704 -653.0
-45.3517095688 -33.5288299704 -654.0
-45.3517095688 -33.5288299704 -655.0
-45.3517095688 -33.5288299704 -656.0
-44.5476012432 -32.9343471695 -657.0
-44.5476012432 -32.9343471695 -658.0
-43.7434929175 -32.3398643686 -659.0
-43.7434929175 -32.3398643686 -660.0
-42.9393845918 -31.7453815677 -661.0
-42.1352762661 -31.1508987668 -662.0
-42.1352762661 -31.1508987668 -663.0
-42.1352762661 -31.1508987668 -664.0
-41.3311679404 -30.5564159659 -665.0
-41.3311679404 -30.5564159659 -666.0
-40.5270596147 -29.961933165 -667.0
-39.722951289 -29.3674503641 -668.0
-39.722951289 -29.3674503641 -669.0
-38.9188429633 -28.7729675632 -670.0
-38.9188429633 -28.7729675632 -671.0
-38.1147346376 -28.1784847624 -672.0
-37.310626312 -27.5840019615 -673.0
-37.310626312 -27.5840019615 -674.0
-37.310626312 -27.5840019615 -675.0
-37.310626312 -27.5840019615 -676.0
-37.310626312 -27.5840019615 -677.0
-37.310626312 -27.5840019615 -678.0
-37.310626312 -27.5840019615 -679.0
-37.310626312 -27.5840019615 -680.0
-37.310626312 -27.5840019615 -681.0
-38.1147346376 -28.1784847624 -682.0
-37.310626312 -27.5840019615 -683.0
-37.310626312 -27.5840019615 -684.0
-38.1147346376 -28.1784847624 -685.0
-38.1147346376 -28.1784847624 -686.0
-38.1147346376 -28.1784847624 -687.0
-38.1147346376 -28.1784847624 -688.0
-38.1147346376 -28.1784847624 -689.0
-38.1147346376 -28.1784847624 -690.0
-38.1147346376 -28.1784847624 -691.0
-38.1147346376 -28.1784847624 -692.0
-38.1147346376 -28.1784847624 -693.0
-38.1147346376 -28.1784847624 -694.0
-38.1147346376 -28.1784847624 -695.0
-38.1147346376 -28.1784847624 -696.0
-38.1147346376 -28.1784847624 -697.0
-38.1147346376 -28.1784847624 -698.0
-38.1147346376 -28.1784847624 -699.0
-38.1147346376 -28.1784847624 -700.0
-38.1147346376 -28.1784847624 -701.0
-38.1147346376 -28.1784847624 -702.0
-16.7331620375 -11.6688169163 -407.0
-16.7331620375 -11.6688169163 -408.0
-17.5534150786 -12.2408177455 -409.0
-17.5534150786 -12.2408177455 -410.0
-18.3736681196 -12.8128185747 -411.0
-18.3736681196 -12.8128185747 -412.0
-20.0141742017 -13.9568202332 -413.0
-20.0141742017 -13.9568202332 -414.0
-21.6546802839 -15.1008218917 -415.0
-21.6546802839 -15.1008218917 -416.0
-22.4749333249 -15.6728227209 -417.0
-23.295186366 -16.2448235501 -418.0
-24.115439407 -16.8168243794 -419.0
-24.9356924481 -17.3888252086 -420.0
-25.7559454891 -17.9608260378 -421.0
-26.5761985302 -18.532826867 -422.0
-26.5761985302 -18.532826867 -423.0
-27.3964515712 -19.1048276963 -424.0
-28.2167046123 -19.6768285255 -425.0
-29.0369576534 -20.2488293547 -426.0
-29.8572106944 -20.820830184 -427.0
-29.8572106944 -20.820830184 -428.0
-29.8572106944 -20.820830184 -429.0
-30.6774637355 -21.3928310132 -430.0
-30.6774637355 -21.3928310132 -431.0
-31.4977167765 -21.9648318424 -432.0
-31.4977167765 -21.9648318424 -433.0
-31.4977167765 -21.9648318424 -434.0
-32.3179698176 -22.5368326717 -435.0
-33.1382228586 -23.1088335009 -436.0
-33.1382228586 -23.1088335009 -437.0
-33.9584758997 -23.6808343301 -438.0
-33.9584758997 -23.6808343301 -439.0
-33.9584758997 -23.6808343301 -440.0
-33.9584758997 -23.6808343301 -441.0
-33.9584758997 -23.6808343301 -442.0
-33.9584758997 -23.6808343301 -443.0
-34.7787289407 -24.2528351593 -444.0
-34.7787289407 -24.2528351593 -445.0
-34.7787289407 -24.2528351593 -446.0
-34.7787289407 -24.2528351593 -447.0
-35.5989819818 -24.8248359886 -448.0
-35.5989819818 -24.8248359886 -449.0
-35.5989819818 -24.8248359886 -450.0
-35.5989819818 -24.8248359886 -451.0
-35.5989819818 -24.8248359886 -452.0
-35.5989819818 -24.8248359886 -453.0
-35.5989819818 -24.8248359886 -454.0
-35.5989819818 -24.8248359886 -455.0
-35.5989819818 -24.8248359886 -456.0
-36.4192350229 -25.3968368178 -457.0
-36.4192350229 -25.3968368178 -458.0
-36.4192350229 -25.3968368178 -459.0
-36.4192350229 -25.3968368178 -460.0
-36.4192350229 -25.3968368178 -461.0
-36.4192350229 -25.3968368178 -462.0
-36.4192350229 -25.3968368178 -463.0
-36.4192350229 -25.3968368178 -464.0
-36.4192350229 -25.3968368178 -465.0
-36.4192350229 -25.3968368178 -466.0
-36.4192350229 -25.3968368178 -467.0
-35.5989819818 -24.8248359886 -468.0
-35.5989819818 -24.8248359886 -469.0
-35.5989819818 -24.8248359886 -470.0
-35.5989819818 -24.8248359886 -471.0
-35.5989819818 -24.8248359886 -472.0
-35.5989819818 -24.8248359886 -473.0
-34.7787289407 -24.2528351593 -474.0
-34.7787289407 -24.2528351593 -475.0
-34.7787289407 -24.2528351593 -476.0
-34.7787289407 -24.2528351593 -477.0
-34.7787289407 -24.2528351593 -478.0
-33.9584758997 -23.6808343301 -479.0
-33.9584758997 -23.6808343301 -480.0
-33.9584758997 -23.6808343301 -481.0
-33.9584758997 -23.6808343301 -482.0
-33.9584758997 -23.6808343301 -483.0
-33.1382228586 -23.1088335009 -484.0
-32.3179698176 -22.5368326717 -485.0
-31.4977167765 -21.9648318424 -486.0
-31.4977167765 -21.9648318424 -487.0
-31.4977167765 -21.9648318424 -488.0
-30.6774637355 -21.3928310132 -489.0
-30.6774637355 -21.3928310132 -490.0
-29.8572106944 -20.820830184 -491.0
-29.0369576534 -20.2488293547 -492.0
-29.0369576534 -20.2488293547 -493.0
-29.0369576534 -20.2488293547 -494.0
-28.2167046123 -19.6768285255 -495.0
-28.2167046123 -19.6768285255 -496.0
-27.3964515712 -19.1048276963 -497.0
-26.5761985302 -18.532826867 -498.0
-11.8116437912 -8.23681194091 -536.0
-14.2724029144 -9.9528144286 -537.0
-15.0926559554 -10.5248152578 -538.0
-16.7331620375 -11.6688169163 -539.0
-17.5534150786 -12.2408177455 -540.0
-19.1939211607 -13.384819404 -541.0
-20.8344272428 -14.5288210624 -542.0
-22.4749333249 -15.6728227209 -543.0
-24.115439407 -16.8168243794 -544.0
-24.115439407 -16.8168243794 -545.0
-25.7559454891 -17.9608260378 -546.0
-26.5761985302 -18.532826867 -547.0
-28.2167046123 -19.6768285255 -548.0
-29.0369576534 -20.2488293547 -549.0
-29.8572106944 -20.820830184 -550.0
-30.6774637355 -21.3928310132 -551.0
-31.4977167765 -21.9648318424 -552.0
-32.3179698176 -22.5368326717 -553.0
-33.1382228586 -23.1088335009 -554.0
-33.9584758997 -23.6808343301 -555.0
-34.7787289407 -24.2528351593 -556.0
-35.5989819818 -24.8248359886 -557.0
-35.5989819818 -24.8248359886 -558.0
-36.4192350229 -25.3968368178 -559.0
-37.2394880639 -25.968837647 -560.0
-37.2394880639 -25.968837647 -561.0
-38.059741105 -26.5408384763 -562.0
-38.879994146 -27.1128393055 -563.0
-39.7002471871 -27.6848401347 -564.0
-40.5205002281 -28.2568409639 -565.0
-40.5205002281 -28.2568409639 -566.0
-41.3407532692 -28.8288417932 -567.0
-42.1610063102 -29.4008426224 -568.0
-42.1610063102 -29.4008426224 -569.0
-42.9812593513 -29.9728434516 -570.0
-43.8015123924 -30.5448442809 -571.0
-43.8015123924 -30.5448442809 -572.0
-44.6217654334 -31.1168451101 -573.0
-44.6217654334 -31.1168451101 -574.0
-44.6217654334 -31.1168451101 -575.0
-44.6217654334 -31.1168451101 -576.0
-45.4420184745 -31.6888459393 -577.0
-46.2622715155 -32.2608467686 -578.0
-46.2622715155 -32.2608467686 -579.0
-46.2622715155 -32.2608467686 -580.0
-47.0825245566 -32.8328475978 -581.0
-47.9027775976 -33.404848427 -582.0
-47.9027775976 -33.404848427 -583.0
-47.9027775976 -33.404848427 -584.0
-47.9027775976 -33.404848427 -585.0
-48.7230306387 -33.9768492562 -586.0
-48.7230306387 -33.9768492562 -587.0
-48.7230306387 -33.9768492562 -588.0
-48.7230306387 -33.9768492562 -589.0
-48.7230306387 -33.9768492562 -590.0
-49.5432836797 -34.5488500855 -591.0
-49.5432836797 -34.5488500855 -592.0
-49.5432836797 -34.5488500855 -593.0
-49.5432836797 -34.5488500855 -594.0
-49.5432836797 -34.5488500855 -595.0
-50.3635367208 -35.1208509147 -596.0
-50.3635367208 -35.1208509147 -597.0
-50.3635367208 -35.1208509147 -598.0
-50.3635367208 -35.1208509147 -599.0
-51.1837897619 -35.6928517439 -600.0
-51.1837897619 -35.6928517439 -601.0
-51.1837897619 -35.6928517439 -602.0
-51.1837897619 -35.6928517439 -603.0
-51.1837897619 -35.6928517439 -604.0
-52.0040428029 -36.2648525732 -605.0
-52.0040428029 -36.2648525732 -606.0
-52.0040428029 -36.2648525732 -607.0
-52.0040428029 -36.2648525732 -608.0
-52.0040428029 -36.2648525732 -609.0
-52.0040428029 -36.2648525732 -610.0
-51.1837897619 -35.6928517439 -611.0
-51.1837897619 -35.6928517439 -612.0
-51.1837897619 -35.6928517439 -613.0
-52.0040428029 -36.2648525732 -614.0
-52.0040428029 -36.2648525732 -615.0
-52.0040428029 -36.2648525732 -616.0
-52.0040428029 -36.2648525732 -617.0
-52.0040428029 -36.2648525732 -618.0
-52.0040428029 -36.2648525732 -619.0
-52.0040428029 -36.2648525732 -620.0
-52.0040428029 -36.2648525732 -621.0
-51.1837897619 -35.6928517439 -622.0
-51.1837897619 -35.6928517439 -623.0
-50.3635367208 -35.1208509147 -624.0
-50.3635367208 -35.1208509147 -625.0
-50.3635367208 -35.1208509147 -626.0
-50.3635367208 -35.1208509147 -627.0
-50.3635367208 -35.1208509147 -628.0
-50.3635367208 -35.1208509147 -629.0
-50.3635367208 -35.1208509147 -630.0
-50.3635367208 -35.1208509147 -631.0
-50.3635367208 -35.1208509147 -632.0
-49.5432836797 -34.5488500855 -633.0
-49.5432836797 -34.5488500855 -634.0
-49.5432836797 -34.5488500855 -635.0
-49.5432836797 -34.5488500855 -636.0
-49.5432836797 -34.5488500855 -637.0
-49.5432836797 -34.5488500855 -638.0
-48.7230306387 -33.9768492562 -639.0
-48.7230306387 -33.9768492562 -640.0
-48.7230306387 -33.9768492562 -641.0
-47.9027775976 -33.404848427 -642.0
-47.9027775976 -33.404848427 -643.0
-47.9027775976 -33.404848427 -644.0
-47.9027775976 -33.404848427 -645.0
-47.0825245566 -32.8328475978 -646.0
-47.0825245566 -32.8328475978 -647.0
-47.0825245566 -32.8328475978 -648.0
-47.0825245566 -32.8328475978 -649.0
-46.2622715155 -32.2608467686 -650.0
-45.4420184745 -31.6888459393 -651.0
-45.4420184745 -31.6888459393 -652.0
-44.6217654334 -31.1168451101 -653.0
-44.6217654334 -31.1168451101 -654.0
-44.6217654334 -31.1168451101 -655.0
-43.8015123924 -30.5448442809 -656.0
-43.8015123924 -30.5448442809 -657.0
-42.9812593513 -29.9728434516 -658.0
-42.9812593513 -29.9728434516 -659.0
-42.9812593513 -29.9728434516 -660.0
-42.1610063102 -29.4008426224 -661.0
-41.3407532692 -28.8288417932 -662.0
-41.3407532692 -28.8288417932 -663.0
-41.3407532692 -28.8288417932 -664.0
-40.5205002281 -28.2568409639 -665.0
-39.7002471871 -27.6848401347 -666.0
-39.7002471871 -27.6848401347 -667.0
-39.7002471871 -27.6848401347 -668.0
-38.879994146 -27.1128393055 -669.0
-38.879994146 -27.1128393055 -670.0
-38.879994146 -27.1128393055 -671.0
-38.059741105 -26.5408384763 -672.0
-38.059741105 -26.5408384763 -673.0
-37.2394880639 -25.968837647 -674.0
-37.2394880639 -25.968837647 -675.0
-37.2394880639 -25.968837647 -676.0
-37.2394880639 -25.968837647 -677.0
-37.2394880639 -25.968837647 -678.0
-37.2394880639 -25.968837647 -679.0
-38.059741105 -26.5408384763 -680.0
-38.059741105 -26.5408384763 -681.0
-38.059741105 -26.5408384763 -682.0
-38.059741105 -26.5408384763 -683.0
-38.059741105 -26.5408384763 -684.0
-38.059741105 -26.5408384763 -685.0
-38.059741105 -26.5408384763 -686.0
-38.059741105 -26.5408384763 -687.0
-38.059741105 -26.5408384763 -688.0
-38.059741105 -26.5408384763 -689.0
-38.059741105 -26.5408384763 -690.0
-38.059741105 -26.5408384763 -691.0
-38.059741105 -26.5408384763 -692.0
-38.879994146 -27.1128393055 -693.0
-38.879994146 -27.1128393055 -694.0
-38.879994146 -27.1128393055 -695.0
-38.879994146 -27.1128393055 -696.0
-38.879994146 -27.1128393055 -697.0
-38.879994146 -27.1128393055 -698.0
-38.059741105 -26.5408384763 -699.0
-38.059741105 -26.5408384763 -700.0
-38.059741105 -26.5408384763 -701.0
-38.879994146 -27.1128393055 -702.0
-16.2139257401 -10.6521646671 -407.0
-17.0496951081 -11.2012453201 -408.0
-17.8854644762 -11.750325973 -409.0
-17.8854644762 -11.750325973 -410.0
-17.8854644762 -11.750325973 -411.0
-18.7212338442 -12.299406626 -412.0
-19.5570032122 -12.8484872789 -413.0
-20.3927725803 -13.3975679319 -414.0
-20.3927725803 -13.3975679319 -415.0
-22.0643113164 -14.4957292377 -416.0
-22.0643113164 -14.4957292377 -417.0
-23.7358500525 -15.5938905436 -418.0
-24.5716194205 -16.1429711966 -419.0
-25.4073887886 -16.6920518495 -420.0
-26.2431581566 -17.2411325025 -421.0
-26.2431581566 -17.2411325025 -422.0
-27.0789275246 -17.7902131554 -423.0
-27.9146968927 -18.3392938084 -424.0
-27.9146968927 -18.3392938084 -425.0
-28.7504662607 -18.8883744613 -426.0
-29.5862356288 -19.4374551143 -427.0
-30.4220049968 -19.9865357672 -428.0
-30.4220049968 -19.9865357672 -429.0
-30.4220049968 -19.9865357672 -430.0
-31.2577743649 -20.5356164201 -431.0
-31.2577743649 -20.5356164201 -432.0
-32.0935437329 -21.0846970731 -433.0
-32.0935437329 -21.0846970731 -434.0
-32.0935437329 -21.0846970731 -435.0
-32.929313101 -21.633777726 -436.0
-33.765082469 -22.182858379 -437.0
-33.765082469 -22.182858379 -438.0
-33.765082469 -22.182858379 -439.0
-33.765082469 -22.182858379 -440.0
-34.600851837 -22.7319390319 -441.0
-34.600851837 -22.7319390319 -442.0
-34.600851837 -22.7319390319 -443.0
-34.600851837 -22.7319390319 -444.0
-34.600851837 -22.7319390319 -445.0
-35.4366212051 -23.2810196849 -446.0
-35.4366212051 -23.2810196849 -447.0
-35.4366212051 -23.2810196849 -448.0
-35.4366212051 -23.2810196849 -449.0
-36.2723905731 -23.8301003378 -450.0
-35.4366212051 -23.2810196849 -451.0
-36.2723905731 -23.8301003378 -452.0
-36.2723905731 -23.8301003378 -453.0
-36.2723905731 -23.8301003378 -454.0
-36.2723905731 -23.8301003378 -455.0
-36.2723905731 -23.8301003378 -456.0
-36.2723905731 -23.8301003378 -457.0
-36.2723905731 -23.8301003378 -458.0
-36.2723905731 -23.8301003378 -459.0
-37.1081599412 -24.3791809908 -460.0
-37.1081599412 -24.3791809908 -461.0
-37.1081599412 -24.3791809908 -462.0
-37.1081599412 -24.3791809908 -463.0
-36.2723905731 -23.8301003378 -464.0
-36.2723905731 -23.8301003378 -465.0
-36.2723905731 -23.8301003378 -466.0
-36.2723905731 -23.8301003378 -467.0
-36.2723905731 -23.8301003378 -468.0
-36.2723905731 -23.8301003378 -469.0
-36.2723905731 -23.8301003378 -470.0
-36.2723905731 -23.8301003378 -471.0
-35.4366212051 -23.2810196849 -472.0
-35.4366212051 -23.2810196849 -473.0
-35.4366212051 -23.2810196849 -474.0
-35.4366212051 -23.2810196849 -475.0
-35.4366212051 -23.2810196849 -476.0
-35.4366212051 -23.2810196849 -477.0
-34.600851837 -22.7319390319 -478.0
-34.600851837 -22.7319390319 -479.0
-33.765082469 -22.182858379 -480.0
-33.765082469 -22.182858379 -481.0
-33.765082469 -22.182858379 -482.0
-33.765082469 -22.182858379 -483.0
-33.765082469 -22.182858379 -484.0
-32.929313101 -21.633777726 -485.0
-32.0935437329 -21.0846970731 -486.0
-32.0935437329 -21.0846970731 -487.0
-31.2577743649 -20.5356164201 -488.0
-31.2577743649 -20.5356164201 -489.0
-31.2577743649 -20.5356164201 -490.0
-30.4220049968 -19.9865357672 -491.0
-29.5862356288 -19.4374551143 -492.0
-29.5862356288 -19.4374551143 -493.0
-28.7504662607 -18.8883744613 -494.0
-27.9146968927 -18.3392938084 -495.0
-27.9146968927 -18.3392938084 -496.0
-27.9146968927 -18.3392938084 -497.0
-27.9146968927 -18.3392938084 -498.0
-12.0350788998 -7.90676140241 -536.0
-12.0350788998 -7.90676140241 -537.0
-13.7066176359 -9.0049227083 -538.0
-15.378156372 -10.1030840142 -539.0
-17.8854644762 -11.750325973 -540.0
-18.7212338442 -12.299406626 -541.0
-20.3927725803 -13.3975679319 -542.0
-22.0643113164 -14.4957292377 -543.0
-23.7358500525 -15.5938905436 -544.0
-24.5716194205 -16.1429711966 -545.0
-25.4073887886 -16.6920518495 -546.0
-27.0789275246 -17.7902131554 -547.0
-27.0789275246 -17.7902131554 -548.0
-28.7504662607 -18.8883744613 -549.0
-29.5862356288 -19.4374551143 -550.0
-30.4220049968 -19.9865357672 -551.0
-32.0935437329 -21.0846970731 -552.0
-32.0935437329 -21.0846970731 -553.0
-32.929313101 -21.633777726 -554.0
-34.600851837 -22.7319390319 -555.0
-34.600851837 -22.7319390319 -556.0
-35.4366212051 -23.2810196849 -557.0
-36.2723905731 -23.8301003378 -558.0
-37.1081599412 -24.3791809908 -559.0
-37.9439293092 -24.9282616437 -560.0
-37.9439293092 -24.9282616437 -561.0
-38.7796986773 -25.4773422966 -562.0
-39.6154680453 -26.0264229496 -563.0
-39.6154680453 -26.0264229496 -564.0
-40.4512374134 -26.5755036025 -565.0
-41.2870067814 -27.1245842555 -566.0
-41.2870067814 -27.1245842555 -567.0
-42.9585455175 -28.2227455614 -568.0
-42.9585455175 -28.2227455614 -569.0
-42.9585455175 -28.2227455614 -570.0
-43.7943148855 -28.7718262143 -571.0
-44.6300842536 -29.3209068673 -572.0
-44.6300842536 -29.3209068673 -573.0
-45.4658536216 -29.8699875202 -574.0
-45.4658536216 -29.8699875202 -575.0
-46.3016229897 -30.4190681732 -576.0
-46.3016229897 -30.4190681732 -577.0
-46.3016229897 -30.4190681732 -578.0
-47.1373923577 -30.9681488261 -579.0
-47.1373923577 -30.9681488261 -580.0
-47.9731617258 -31.517229479 -581.0
-47.9731617258 -31.517229479 -582.0
-47.9731617258 -31.517229479 -583.0
-48.8089310938 -32.066310132 -584.0
-48.8089310938 -32.066310132 -585.0
-48.8089310938 -32.066310132 -586.0
-49.6447004618 -32.6153907849 -587.0
-49.6447004618 -32.6153907849 -588.0
-49.6447004618 -32.6153907849 -589.0
-49.6447004618 -32.6153907849 -590.0
-49.6447004618 -32.6153907849 -591.0
-50.4804698299 -33.1644714379 -592.0
-50.4804698299 -33.1644714379 -593.0
-50.4804698299 -33.1644714379 -594.0
-50.4804698299 -33.1644714379 -595.0
-50.4804698299 -33.1644714379 -596.0
-50.4804698299 -33.1644714379 -597.0
-50.4804698299 -33.1644714379 -598.0
-51.3162391979 -33.7135520908 -599.0
-51.3162391979 -33.7135520908 -600.0
-51.3162391979 -33.7135520908 -601.0
-51.3162391979 -33.7135520908 -602.0
-52.152008566 -34.2626327438 -603.0
-52.152008566 -34.2626327438 -604.0
-52.152008566 -34.2626327438 -605.0
-52.152008566 -34.2626327438 -606.0
-52.152008566 -34.2626327438 -607.0
-52.152008566 -34.2626327438 -608.0
-52.152008566 -34.2626327438 -609.0
-52.152008566 -34.2626327438 -610.0
-52.152008566 -34.2626327438 -611.0
-52.152008566 -34.2626327438 -612.0
-52.152008566 -34.2626327438 -613.0
-52.152008566 -34.2626327438 -614.0
-52.152008566 -34.2626327438 -615.0
-52.152008566 -34.2626327438 -616.0
-52.152008566 -34.2626327438 -617.0
-52.152008566 -34.2626327438 -618.0
-52.152008566 -34.2626327438 -619.0
-52.152008566 -34.2626327438 -620.0
-51.3162391979 -33.7135520908 -621.0
-51.3162391979 -33.7135520908 -622.0
-51.3162391979 -33.7135520908 -623.0
-51.3162391979 -33.7135520908 -624.0
-51.3162391979 -33.7135520908 -625.0
-51.3162391979 -33.7135520908 -626.0
-51.3162391979 -33.7135520908 -627.0
-51.3162391979 -33.7135520908 -628.0
-51.3162391979 -33.7135520908 -629.0
-51.3162391979 -33.7135520908 -630.0
-51.3162391979 -33.7135520908 -631.0
-51.3162391979 -33.7135520908 -632.0
-50.4804698299 -33.1644714379 -633.0
-50.4804698299 -33.1644714379 -634.0
-49.6447004618 -32.6153907849 -635.0
-49.6447004618 -32.6153907849 -636.0
-49.6447004618 -32.6153907849 -637.0
-49.6447004618 -32.6153907849 -638.0
-49.6447004618 -32.6153907849 -639.0
-49.6447004618 -32.6153907849 -640.0
-48.8089310938 -32.066310132 -641.0
-48.8089310938 -32.066310132 -642.0
-48.8089310938 -32.066310132 -643.0
-48.8089310938 -32.066310132 -644.0
-47.9731617258 -31.517229479 -645.0
-47.9731617258 -31.517229479 -646.0
-47.9731617258 -31.517229479 -647.0
-47.1373923577 -30.9681488261 -648.0
-47.1373923577 -30.9681488261 -649.0
-46.3016229897 -30.4190681732 -650.0
-46.3016229897 -30.4190681732 -651.0
-45.4658536216 -29.8699875202 -652.0
-45.4658536216 -29.8699875202 -653.0
-45.4658536216 -29.8699875202 -654.0
-44.6300842536 -29.3209068673 -655.0
-43.7943148855 -28.7718262143 -656.0
-43.7943148855 -28.7718262143 -657.0
-43.7943148855 -28.7718262143 -658.0
-43.7943148855 -28.7718262143 -659.0
-42.9585455175 -28.2227455614 -660.0
-42.1227761494 -27.6736649084 -661.0
-42.1227761494 -27.6736649084 -662.0
-42.1227761494 -27.6736649084 -663.0
-41.2870067814 -27.1245842555 -664.0
-41.2870067814 -27.1245842555 -665.0
-40.4512374134 -26.5755036025 -666.0
-40.4512374134 -26.5755036025 -667.0
-39.6154680453 -26.0264229496 -668.0
-39.6154680453 -26.0264229496 -669.0
-38.7796986773 -25.4773422966 -670.0
-38.7796986773 -25.4773422966 -671.0
-37.9439293092 -24.9282616437 -672.0
-37.9439293092 -24.9282616437 -673.0
-37.9439293092 -24.9282616437 -674.0
-37.9439293092 -24.9282616437 -675.0
-37.9439293092 -24.9282616437 -676.0
-37.9439293092 -24.9282616437 -677.0
-37.9439293092 -24.9282616437 -678.0
-37.9439293092 -24.9282616437 -679.0
-37.9439293092 -24.9282616437 -680.0
-37.9439293092 -24.9282616437 -681.0
-37.9439293092 -24.9282616437 -682.0
-37.9439293092 -24.9282616437 -683.0
-37.9439293092 -24.9282616437 -684.0
-38.7796986773 -25.4773422966 -685.0
-38.7796986773 -25.4773422966 -686.0
-38.7796986773 -25.4773422966 -687.0
-38.7796986773 -25.4773422966 -688.0
-38.7796986773 -25.4773422966 -689.0
-38.7796986773 -25.4773422966 -690.0
-38.7796986773 -25.4773422966 -691.0
-38.7796986773 -25.4773422966 -692.0
-38.7796986773 -25.4773422966 -693.0
-38.7796986773 -25.4773422966 -694.0
-38.7796986773 -25.4773422966 -695.0
-38.7796986773 -25.4773422966 -696.0
-38.7796986773 -25.4773422966 -697.0
-38.7796986773 -25.4773422966 -698.0
-38.7796986773 -25.4773422966 -699.0
-38.7796986773 -25.4773422966 -700.0
-38.7796986773 -25.4773422966 -701.0
-38.7796986773 -25.4773422966 -702.0
-13.9505848837 -8.62213322803 -409.0
-15.6518757232 -9.67361288998 -410.0
-15.6518757232 -9.67361288998 -411.0
-16.5025211429 -10.199352721 -412.0
-17.3531665627 -10.7250925519 -413.0
-17.3531665627 -10.7250925519 -414.0
-17.3531665627 -10.7250925519 -415.0
-18.2038119824 -11.2508323829 -416.0
-19.0544574022 -11.7765722139 -417.0
-19.0544574022 -11.7765722139 -418.0
-19.9051028219 -12.3023120449 -419.0
-20.7557482416 -12.8280518758 -420.0
-21.6063936614 -13.3537917068 -421.0
-22.4570390811 -13.8795315378 -422.0
-23.3076845009 -14.4052713688 -423.0
-24.1583299206 -14.9310111998 -424.0
-24.1583299206 -14.9310111998 -425.0
-25.0089753403 -15.4567510307 -426.0
-25.8596207601 -15.9824908617 -427.0
-25.8596207601 -15.9824908617 -428.0
-26.7102661798 -16.5082306927 -429.0
-27.5609115996 -17.0339705237 -430.0
-27.5609115996 -17.0339705237 -431.0
-28.4115570193 -17.5597103546 -432.0
-28.4115570193 -17.5597103546 -433.0
-28.4115570193 -17.5597103546 -434.0
-29.262202439 -18.0854501856 -435.0
-29.262202439 -18.0854501856 -436.0
-30.1128478588 -18.6111900166 -437.0
-30.1128478588 -18.6111900166 -438.0
-30.9634932785 -19.1369298476 -439.0
-30.9634932785 -19.1369298476 -440.0
-30.9634932785 -19.1369298476 -441.0
-30.9634932785 -19.1369298476 -442.0
-31.8141386983 -19.6626696786 -443.0
-31.8141386983 -19.6626696786 -444.0
-32.664784118 -20.1884095095 -445.0
-32.664784118 -20.1884095095 -446.0
-32.664784118 -20.1884095095 -447.0
-32.664784118 -20.1884095095 -448.0
-32.664784118 -20.1884095095 -449.0
-33.5154295377 -20.7141493405 -450.0
-33.5154295377 -20.7141493405 -451.0
-33.5154295377 -20.7141493405 -452.0
-33.5154295377 -20.7141493405 -453.0
-33.5154295377 -20.7141493405 -454.0
-33.5154295377 -20.7141493405 -455.0
-33.5154295377 -20.7141493405 -456.0
-33.5154295377 -20.7141493405 -457.0
-33.5154295377 -20.7141493405 -458.0
-33.5154295377 -20.7141493405 -459.0
-33.5154295377 -20.7141493405 -460.0
-33.5154295377 -20.7141493405 -461.0
-33.5154295377 -20.7141493405 -462.0
-33.5154295377 -20.7141493405 -463.0
-33.5154295377 -20.7141493405 -464.0
-33.5154295377 -20.7141493405 -465.0
-33.5154295377 -20.7141493405 -466.0
-34.3660749575 -21.2398891715 -467.0
-33.5154295377 -20.7141493405 -468.0
-33.5154295377 -20.7141493405 -469.0
-33.5154295377 -20.7141493405 -470.0
-33.5154295377 -20.7141493405 -471.0
-33.5154295377 -20.7141493405 -472.0
-32.664784118 -20.1884095095 -473.0
-32.664784118 -20.1884095095 -474.0
-32.664784118 -20.1884095095 -475.0
-32.664784118 -20.1884095095 -476.0
-32.664784118 -20.1884095095 -477.0
-31.8141386983 -19.6626696786 -478.0
-31.8141386983 -19.6626696786 -479.0
-30.9634932785 -19.1369298476 -480.0
-30.9634932785 -19.1369298476 -481.0
-30.9634932785 -19.1369298476 -482.0
-30.9634932785 -19.1369298476 -483.0
-30.1128478588 -18.6111900166 -484.0
-30.1128478588 -18.6111900166 -485.0
-29.262202439 -18.0854501856 -486.0
-29.262202439 -18.0854501856 -487.0
-28.4115570193 -17.5597103546 -488.0
-27.5609115996 -17.0339705237 -489.0
-27.5609115996 -17.0339705237 -490.0
-27.5609115996 -17.0339705237 -491.0
-26.7102661798 -16.5082306927 -492.0
-26.7102661798 -16.5082306927 -493.0
-25.8596207601 -15.9824908617 -494.0
-25.8596207601 -15.9824908617 -495.0
-9.69735778503 -5.99343407314 -536.0
-10.5480032048 -6.51917390412 -537.0
-12.2492940442 -7.57065356607 -538.0
-13.9505848837 -8.62213322803 -539.0
-15.6518757232 -9.67361288998 -540.0
-17.3531665627 -10.7250925519 -541.0
-19.9051028219 -12.3023120449 -542.0
-20.7557482416 -12.8280518758 -543.0
-22.4570390811 -13.8795315378 -544.0
-23.3076845009 -14.4052713688 -545.0
-25.0089753403 -15.4567510307 -546.0
-25.0089753403 -15.4567510307 -547.0
-26.7102661798 -16.5082306927 -548.0
-27.5609115996 -17.0339705237 -549.0
-28.4115570193 -17.5597103546 -550.0
-29.262202439 -18.0854501856 -551.0
-30.1128478588 -18.6111900166 -552.0
-30.9634932785 -19.1369298476 -553.0
-31.8141386983 -19.6626696786 -554.0
-32.664784118 -20.1884095095 -555.0
-33.5154295377 -20.7141493405 -556.0
-34.3660749575 -21.2398891715 -557.0
-35.2167203772 -21.7656290025 -558.0
-36.067365797 -22.2913688334 -559.0
-36.9180112167 -22.8171086644 -560.0
-36.9180112167 -22.8171086644 -561.0
-37.7686566364 -23.3428484954 -562.0
-38.6193020562 -23.8685883264 -563.0
-39.4699474759 -24.3943281573 -564.0
-39.4699474759 -24.3943281573 -565.0
-40.3205928957 -24.9200679883 -566.0
-41.1712383154 -25.4458078193 -567.0
-42.0218837351 -25.9715476503 -568.0
-42.0218837351 -25.9715476503 -569.0
-42.8725291549 -26.4972874813 -570.0
-42.8725291549 -26.4972874813 -571.0
-43.7231745746 -27.0230273122 -572.0
-43.7231745746 -27.0230273122 -573.0
-44.5738199944 -27.5487671432 -574.0
-44.5738199944 -27.5487671432 -575.0
-45.4244654141 -28.0745069742 -576.0
-45.4244654141 -28.0745069742 -577.0
-46.2751108338 -28.6002468052 -578.0
-46.2751108338 -28.6002468052 -579.0
-47.1257562536 -29.1259866361 -580.0
-47.1257562536 -29.1259866361 -581.0
-47.1257562536 -29.1259866361 -582.0
-47.9764016733 -29.6517264671 -583.0
-47.9764016733 -29.6517264671 -584.0
-47.9764016733 -29.6517264671 -585.0
-48.8270470931 -30.1774662981 -586.0
-48.8270470931 -30.1774662981 -587.0
-48.8270470931 -30.1774662981 -588.0
-49.6776925128 -30.7032061291 -589.0
-49.6776925128 -30.7032061291 -590.0
-49.6776925128 -30.7032061291 -591.0
-49.6776925128 -30.7032061291 -592.0
-49.6776925128 -30.7032061291 -593.0
-50.5283379325 -31.2289459601 -594.0
-50.5283379325 -31.2289459601 -595.0
-50.5283379325 -31.2289459601 -596.0
-50.5283379325 -31.2289459601 -597.0
-50.5283379325 -31.2289459601 -598.0
-50.5283379325 -31.2289459601 -599.0
-50.5283379325 -31.2289459601 -600.0
-50.5283379325 -31.2289459601 -601.0
-50.5283379325 -31.2289459601 -602.0
-51.3789833523 -31.754685791 -603.0
-51.3789833523 -31.754685791 -604.0
-51.3789833523 -31.754685791 -605.0
-51.3789833523 -31.754685791 -606.0
-51.3789833523 -31.754685791 -607.0
-51.3789833523 -31.754685791 -608.0
-51.3789833523 -31.754685791 -609.0
-51.3789833523 -31.754685791 -610.0
-51.3789833523 -31.754685791 -611.0
-51.3789833523 -31.754685791 -612.0
-51.3789833523 -31.754685791 -613.0
-51.3789833523 -31.754685791 -614.0
-51.3789833523 -31.754685791 -615.0
-51.3789833523 -31.754685791 -616.0
-51.3789833523 -31.754685791 -617.0
-51.3789833523 -31.754685791 -618.0
-51.3789833523 -31.754685791 -619.0
-51.3789833523 -31.754685791 -620.0
-51.3789833523 -31.754685791 -621.0
-51.3789833523 -31.754685791 -622.0
-51.3789833523 -31.754685791 -623.0
-50.5283379325 -31.2289459601 -624.0
-50.5283379325 -31.2289459601 -625.0
-50.5283379325 -31.2289459601 -626.0
-50.5283379325 -31.2289459601 -627.0
-50.5283379325 -31.2289459601 -628.0
-50.5283379325 -31.2289459601 -629.0
-49.6776925128 -30.7032061291 -630.0
-49.6776925128 -30.7032061291 -631.0
-49.6776925128 -30.7032061291 -632.0
-49.6776925128 -30.7032061291 -633.0
-49.6776925128 -30.7032061291 -634.0
-48.8270470931 -30.1774662981 -635.0
-48.8270470931 -30.1774662981 -636.0
-48.8270470931 -30.1774662981 -637.0
-48.8270470931 -30.1774662981 -638.0
-48.8270470931 -30.1774662981 -639.0
-48.8270470931 -30.1774662981 -640.0
-47.9764016733 -29.6517264671 -641.0
-47.9764016733 -29.6517264671 -642.0
-47.9764016733 -29.6517264671 -643.0
-47.9764016733 -29.6517264671 -644.0
-47.1257562536 -29.1259866361 -645.0
-47.1257562536 -29.1259866361 -646.0
-47.1257562536 -29.1259866361 -647.0
-46.2751108338 -28.6002468052 -648.0
-46.2751108338 -28.6002468052 -649.0
-45.4244654141 -28.0745069742 -650.0
-45.4244654141 -28.0745069742 -651.0
-45.4244654141 -28.0745069742 -652.0
-44.5738199944 -27.5487671432 -653.0
-44.5738199944 -27.5487671432 -654.0
-44.5738199944 -27.5487671432 -655.0
-43.7231745746 -27.0230273122 -656.0
-42.8725291549 -26.4972874813 -657.0
-42.8725291549 -26.4972874813 -658.0
-42.8725291549 -26.4972874813 -659.0
-42.0218837351 -25.9715476503 -660.0
-41.1712383154 -25.4458078193 -661.0
-41.1712383154 -25.4458078193 -662.0
-41.1712383154 -25.4458078193 -663.0
-41.1712383154 -25.4458078193 -664.0
-40.3205928957 -24.9200679883 -665.0
-40.3205928957 -24.9200679883 -666.0
-39.4699474759 -24.3943281573 -667.0
-39.4699474759 -24.3943281573 -668.0
-38.6193020562 -23.8685883264 -669.0
-38.6193020562 -23.8685883264 -670.0
-38.6193020562 -23.8685883264 -671.0
-37.7686566364 -23.3428484954 -672.0
-37.7686566364 -23.3428484954 -673.0
-37.7686566364 -23.3428484954 -674.0
-37.7686566364 -23.3428484954 -675.0
-36.9180112167 -22.8171086644 -676.0
-37.7686566364 -23.3428484954 -677.0
-37.7686566364 -23.3428484954 -678.0
-37.7686566364 -23.3428484954 -679.0
-37.7686566364 -23.3428484954 -680.0
-37.7686566364 -23.3428484954 -681.0
-37.7686566364 -23.3428484954 -682.0
-37.7686566364 -23.3428484954 -683.0
-38.6193020562 -23.8685883264 -684.0
-38.6193020562 -23.8685883264 -685.0
-38.6193020562 -23.8685883264 -686.0
-38.6193020562 -23.8685883264 -687.0
-38.6193020562 -23.8685883264 -688.0
-38.6193020562 -23.8685883264 -689.0
-37.7686566364 -23.3428484954 -690.0
-38.6193020562 -23.8685883264 -691.0
-38.6193020562 -23.8685883264 -692.0
-38.6193020562 -23.8685883264 -693.0
-38.6193020562 -23.8685883264 -694.0
-38.6193020562 -23.8685883264 -695.0
-38.6193020562 -23.8685883264 -696.0
-38.6193020562 -23.8685883264 -697.0
-38.6193020562 -23.8685883264 -698.0
-37.7686566364 -23.3428484954 -699.0
-38.6193020562 -23.8685883264 -700.0
-38.6193020562 -23.8685883264 -701.0
-15.0487345154 -8.73473465461 -409.0
-15.0487345154 -8.73473465461 -410.0
-15.9136043151 -9.23673089913 -411.0
-15.9136043151 -9.23673089913 -412.0
-15.9136043151 -9.23673089913 -413.0
-16.7784741148 -9.73872714364 -414.0
-17.6433439146 -10.2407233882 -415.0
-17.6433439146 -10.2407233882 -416.0
-18.5082137143 -10.7427196327 -417.0
-19.373083514 -11.2447158772 -418.0
-20.2379533138 -11.7467121217 -419.0
-21.1028231135 -12.2487083662 -420.0
-21.9676929132 -12.7507046108 -421.0
-22.8325627129 -13.2527008553 -422.0
-23.6974325127 -13.7546970998 -423.0
-23.6974325127 -13.7546970998 -424.0
-24.5623023124 -14.2566933443 -425.0
-24.5623023124 -14.2566933443 -426.0
-25.4271721121 -14.7586895888 -427.0
-26.2920419119 -15.2606858333 -428.0
-27.1569117116 -15.7626820779 -429.0
-28.0217815113 -16.2646783224 -430.0
-28.0217815113 -16.2646783224 -431.0
-28.0217815113 -16.2646783224 -432.0
-28.8866513111 -16.7666745669 -433.0
-28.8866513111 -16.7666745669 -434.0
-28.8866513111 -16.7666745669 -435.0
-29.7515211108 -17.2686708114 -436.0
-29.7515211108 -17.2686708114 -437.0
-30.6163909105 -17.7706670559 -438.0
-30.6163909105 -17.7706670559 -439.0
-31.4812607103 -18.2726633004 -440.0
-31.4812607103 -18.2726633004 -441.0
-31.4812607103 -18.2726633004 -442.0
-32.34613051 -18.774659545 -443.0
-32.34613051 -18.774659545 -444.0
-32.34613051 -18.774659545 -445.0
-32.34613051 -18.774659545 -446.0
-32.34613051 -18.774659545 -447.0
-32.34613051 -18.774659545 -448.0
-32.34613051 -18.774659545 -449.0
-33.2110003097 -19.2766557895 -450.0
-33.2110003097 -19.2766557895 -451.0
-33.2110003097 -19.2766557895 -452.0
-33.2110003097 -19.2766557895 -453.0
-34.0758701095 -19.778652034 -454.0
-34.0758701095 -19.778652034 -455.0
-34.0758701095 -19.778652034 -456.0
-34.0758701095 -19.778652034 -457.0
-34.0758701095 -19.778652034 -458.0
-34.0758701095 -19.778652034 -459.0
-34.0758701095 -19.778652034 -460.0
-34.0758701095 -19.778652034 -461.0
-34.0758701095 -19.778652034 -462.0
-34.0758701095 -19.778652034 -463.0
-34.0758701095 -19.778652034 -464.0
-34.0758701095 -19.778652034 -465.0
-34.0758701095 -19.778652034 -466.0
-34.0758701095 -19.778652034 -467.0
-34.0758701095 -19.778652034 -468.0
-34.0758701095 -19.778652034 -469.0
-34.0758701095 -19.778652034 -470.0
-34.0758701095 -19.778652034 -471.0
-33.2110003097 -19.2766557895 -472.0
-33.2110003097 -19.2766557895 -473.0
-33.2110003097 -19.2766557895 -474.0
-33.2110003097 -19.2766557895 -475.0
-33.2110003097 -19.2766557895 -476.0
-32.34613051 -18.774659545 -477.0
-32.34613051 -18.774659545 -478.0
-31.4812607103 -18.2726633004 -479.0
-31.4812607103 -18.2726633004 -480.0
-31.4812607103 -18.2726633004 -481.0
-30.6163909105 -17.7706670559 -482.0
-30.6163909105 -17.7706670559 -483.0
-30.6163909105 -17.7706670559 -484.0
-29.7515211108 -17.2686708114 -485.0
-29.7515211108 -17.2686708114 -486.0
-28.8866513111 -16.7666745669 -487.0
-28.8866513111 -16.7666745669 -488.0
-28.0217815113 -16.2646783224 -489.0
-28.0217815113 -16.2646783224 -490.0
-27.1569117116 -15.7626820779 -491.0
-26.2920419119 -15.2606858333 -492.0
-26.2920419119 -15.2606858333 -493.0
-26.2920419119 -15.2606858333 -494.0
-25.4271721121 -14.7586895888 -495.0
-8.99464591722 -5.22076094298 -536.0
-9.85951571696 -5.7227571875 -537.0
-11.5892553164 -6.72674967654 -538.0
-14.1838647156 -8.23273841009 -539.0
-15.0487345154 -8.73473465461 -540.0
-16.7784741148 -9.73872714364 -541.0
-19.373083514 -11.2447158772 -542.0
-20.2379533138 -11.7467121217 -543.0
-21.9676929132 -12.7507046108 -544.0
-22.8325627129 -13.2527008553 -545.0
-24.5623023124 -14.2566933443 -546.0
-25.4271721121 -14.7586895888 -547.0
-27.1569117116 -15.7626820779 -548.0
-28.0217815113 -16.2646783224 -549.0
-28.8866513111 -16.7666745669 -550.0
-29.7515211108 -17.2686708114 -551.0
-30.6163909105 -17.7706670559 -552.0
-31.4812607103 -18.2726633004 -553.0
-32.34613051 -18.774659545 -554.0
-33.2110003097 -19.2766557895 -555.0
-34.0758701095 -19.778652034 -556.0
-34.9407399092 -20.2806482785 -557.0
-35.8056097089 -20.782644523 -558.0
-36.6704795087 -21.2846407676 -559.0
-37.5353493084 -21.7866370121 -560.0
-37.5353493084 -21.7866370121 -561.0
-37.5353493084 -21.7866370121 -562.0
-38.4002191081 -22.2886332566 -563.0
-39.2650889079 -22.7906295011 -564.0
-40.1299587076 -23.2926257456 -565.0
-40.9948285073 -23.7946219901 -566.0
-40.9948285073 -23.7946219901 -567.0
-41.8596983071 -24.2966182347 -568.0
-42.7245681068 -24.7986144792 -569.0
-42.7245681068 -24.7986144792 -570.0
-43.5894379065 -25.3006107237 -571.0
-43.5894379065 -25.3006107237 -572.0
-44.4543077063 -25.8026069682 -573.0
-44.4543077063 -25.8026069682 -574.0
-44.4543077063 -25.8026069682 -575.0
-45.319177506 -26.3046032127 -576.0
-45.319177506 -26.3046032127 -577.0
-46.1840473057 -26.8065994572 -578.0
-46.1840473057 -26.8065994572 -579.0
-47.0489171055 -27.3085957018 -580.0
-47.0489171055 -27.3085957018 -581.0
-47.9137869052 -27.8105919463 -582.0
-47.9137869052 -27.8105919463 -583.0
-47.9137869052 -27.8105919463 -584.0
-48.7786567049 -28.3125881908 -585.0
-48.7786567049 -28.3125881908 -586.0
-49.6435265047 -28.8145844353 -587.0
-49.6435265047 -28.8145844353 -588.0
-49.6435265047 -28.8145844353 -589.0
-49.6435265047 -28.8145844353 -590.0
-50.5083963044 -29.3165806798 -591.0
-50.5083963044 -29.3165806798 -592.0
-50.5083963044 -29.3165806798 -593.0
-50.5083963044 -29.3165806798 -594.0
-50.5083963044 -29.3165806798 -595.0
-50.5083963044 -29.3165806798 -596.0
-51.3732661041 -29.8185769244 -597.0
-51.3732661041 -29.8185769244 -598.0
-51.3732661041 -29.8185769244 -599.0
-51.3732661041 -29.8185769244 -600.0
-51.3732661041 -29.8185769244 -601.0
-52.2381359039 -30.3205731689 -602.0
-51.3732661041 -29.8185769244 -603.0
-51.3732661041 -29.8185769244 -604.0
-51.3732661041 -29.8185769244 -605.0
-51.3732661041 -29.8185769244 -606.0
-51.3732661041 -29.8185769244 -607.0
-51.3732661041 -29.8185769244 -608.0
-51.3732661041 -29.8185769244 -609.0
-52.2381359039 -30.3205731689 -610.0
-52.2381359039 -30.3205731689 -611.0
-52.2381359039 -30.3205731689 -612.0
-52.2381359039 -30.3205731689 -613.0
-52.2381359039 -30.3205731689 -614.0
-52.2381359039 -30.3205731689 -615.0
-52.2381359039 -30.3205731689 -616.0
-52.2381359039 -30.3205731689 -617.0
-51.3732661041 -29.8185769244 -618.0
-51.3732661041 -29.8185769244 -619.0
-51.3732661041 -29.8185769244 -620.0
-51.3732661041 -29.8185769244 -621.0
-51.3732661041 -29.8185769244 -622.0
-51.3732661041 -29.8185769244 -623.0
-51.3732661041 -29.8185769244 -624.0
-51.3732661041 -29.8185769244 -625.0
-51.3732661041 -29.8185769244 -626.0
-51.3732661041 -29.8185769244 -627.0
-51.3732661041 -29.8185769244 -628.0
-51.3732661041 -29.8185769244 -629.0
-50.5083963044 -29.3165806798 -630.0
-50.5083963044 -29.3165806798 -631.0
-50.5083963044 -29.3165806798 -632.0
-50.5083963044 -29.3165806798 -633.0
-49.6435265047 -28.8145844353 -634.0
-49.6435265047 -28.8145844353 -635.0
-49.6435265047 -28.8145844353 -636.0
-49.6435265047 -28.8145844353 -637.0
-49.6435265047 -28.8145844353 -638.0
-49.6435265047 -28.8145844353 -639.0
-48.7786567049 -28.3125881908 -640.0
-48.7786567049 -28.3125881908 -641.0
-48.7786567049 -28.3125881908 -642.0
-47.9137869052 -27.8105919463 -643.0
-47.9137869052 -27.8105919463 -644.0
-47.0489171055 -27.3085957018 -645.0
-47.0489171055 -27.3085957018 -646.0
-47.0489171055 -27.3085957018 -647.0
-47.0489171055 -27.3085957018 -648.0
-47.0489171055 -27.3085957018 -649.0
-46.1840473057 -26.8065994572 -650.0
-46.1840473057 -26.8065994572 -651.0
-46.1840473057 -26.8065994572 -652.0
-45.319177506 -26.3046032127 -653.0
-45.319177506 -26.3046032127 -654.0
-45.319177506 -26.3046032127 -655.0
-44.4543077063 -25.8026069682 -656.0
-44.4543077063 -25.8026069682 -657.0
-43.5894379065 -25.3006107237 -658.0
-42.7245681068 -24.7986144792 -659.0
-42.7245681068 -24.7986144792 -660.0
-41.8596983071 -24.2966182347 -661.0
-41.8596983071 -24.2966182347 -662.0
-41.8596983071 -24.2966182347 -663.0
-40.9948285073 -23.7946219901 -664.0
-40.9948285073 -23.7946219901 -665.0
-40.1299587076 -23.2926257456 -666.0
-40.1299587076 -23.2926257456 -667.0
-39.2650889079 -22.7906295011 -668.0
-39.2650889079 -22.7906295011 -669.0
-39.2650889079 -22.7906295011 -670.0
-38.4002191081 -22.2886332566 -671.0
-38.4002191081 -22.2886332566 -672.0
-37.5353493084 -21.7866370121 -673.0
-37.5353493084 -21.7866370121 -674.0
-38.4002191081 -22.2886332566 -675.0
-37.5353493084 -21.7866370121 -676.0
-38.4002191081 -22.2886332566 -677.0
-37.5353493084 -21.7866370121 -678.0
-37.5353493084 -21.7866370121 -679.0
-38.4002191081 -22.2886332566 -680.0
-38.4002191081 -22.2886332566 -681.0
-38.4002191081 -22.2886332566 -682.0
-38.4002191081 -22.2886332566 -683.0
-38.4002191081 -22.2886332566 -684.0
-38.4002191081 -22.2886332566 -685.0
-38.4002191081 -22.2886332566 -686.0
-38.4002191081 -22.2886332566 -687.0
-38.4002191081 -22.2886332566 -688.0
-38.4002191081 -22.2886332566 -689.0
-38.4002191081 -22.2886332566 -690.0
-38.4002191081 -22.2886332566 -691.0
-38.4002191081 -22.2886332566 -692.0
-38.4002191081 -22.2886332566 -693.0
-38.4002191081 -22.2886332566 -694.0
-39.2650889079 -22.7906295011 -695.0
-38.4002191081 -22.2886332566 -696.0
-38.4002191081 -22.2886332566 -697.0
-38.4002191081 -22.2886332566 -698.0
-38.4002191081 -22.2886332566 -699.0
-38.4002191081 -22.2886332566 -700.0
-39.2650889079 -22.7906295011 -701.0
-13.5278468072 -7.359168483 -411.0
-14.406278418 -7.83703656631 -412.0
-14.406278418 -7.83703656631 -413.0
-15.2847100289 -8.31490464962 -414.0
-14.406278418 -7.83703656631 -415.0
-15.2847100289 -8.31490464962 -416.0
-15.2847100289 -8.31490464962 -417.0
-16.1631416398 -8.79277273293 -418.0
-17.0415732506 -9.27064081624 -419.0
-17.9200048615 -9.74850889955 -420.0
-17.9200048615 -9.74850889955 -421.0
-18.7984364723 -10.2263769829 -422.0
-18.7984364723 -10.2263769829 -423.0
-19.6768680832 -10.7042450662 -424.0
-20.555299694 -11.1821131495 -425.0
-21.4337313049 -11.6599812328 -426.0
-21.4337313049 -11.6599812328 -427.0
-22.3121629158 -12.1378493161 -428.0
-23.1905945266 -12.6157173994 -429.0
-24.0690261375 -13.0935854827 -430.0
-24.0690261375 -13.0935854827 -431.0
-24.0690261375 -13.0935854827 -432.0
-24.9474577483 -13.571453566 -433.0
-25.8258893592 -14.0493216494 -434.0
-25.8258893592 -14.0493216494 -435.0
-25.8258893592 -14.0493216494 -436.0
-26.70432097 -14.5271897327 -437.0
-27.5827525809 -15.005057816 -438.0
-27.5827525809 -15.005057816 -439.0
-28.4611841918 -15.4829258993 -440.0
-28.4611841918 -15.4829258993 -441.0
-28.4611841918 -15.4829258993 -442.0
-28.4611841918 -15.4829258993 -443.0
-28.4611841918 -15.4829258993 -444.0
-29.3396158026 -15.9607939826 -445.0
-29.3396158026 -15.9607939826 -446.0
-29.3396158026 -15.9607939826 -447.0
-30.2180474135 -16.4386620659 -448.0
-30.2180474135 -16.4386620659 -449.0
-30.2180474135 -16.4386620659 -450.0
-30.2180474135 -16.4386620659 -451.0
-30.2180474135 -16.4386620659 -452.0
-31.0964790243 -16.9165301492 -453.0
-31.0964790243 -16.9165301492 -454.0
-31.0964790243 -16.9165301492 -455.0
-31.0964790243 -16.9165301492 -456.0
-31.0964790243 -16.9165301492 -457.0
-31.0964790243 -16.9165301492 -458.0
-31.0964790243 -16.9165301492 -459.0
-31.0964790243 -16.9165301492 -460.0
-31.0964790243 -16.9165301492 -461.0
-31.0964790243 -16.9165301492 -462.0
-31.0964790243 -16.9165301492 -463.0
-31.0964790243 -16.9165301492 -464.0
-31.0964790243 -16.9165301492 -465.0
-31.0964790243 -16.9165301492 -466.0
-31.0964790243 -16.9165301492 -467.0
-30.2180474135 -16.4386620659 -468.0
-30.2180474135 -16.4386620659 -469.0
-31.0964790243 -16.9165301492 -470.0
-30.2180474135 -16.4386620659 -471.0
-30.2180474135 -16.4386620659 -472.0
-30.2180474135 -16.4386620659 -473.0
-30.2180474135 -16.4386620659 -474.0
-30.2180474135 -16.4386620659 -475.0
-29.3396158026 -15.9607939826 -476.0
-29.3396158026 -15.9607939826 -477.0
-28.4611841918 -15.4829258993 -478.0
-28.4611841918 -15.4829258993 -479.0
-28.4611841918 -15.4829258993 -480.0
-28.4611841918 -15.4829258993 -481.0
-27.5827525809 -15.005057816 -482.0
-27.5827525809 -15.005057816 -483.0
-26.70432097 -14.5271897327 -484.0
-25.8258893592 -14.0493216494 -485.0
-25.8258893592 -14.0493216494 -486.0
-24.9474577483 -13.571453566 -487.0
-24.9474577483 -13.571453566 -488.0
-24.0690261375 -13.0935854827 -489.0
-24.0690261375 -13.0935854827 -490.0
-24.0690261375 -13.0935854827 -491.0
-5.62196230948 -3.05835573319 -536.0
-8.25725714205 -4.49195998313 -537.0
-10.0141203638 -5.44769614975 -538.0
-11.7709835855 -6.40343231637 -539.0
-15.2847100289 -8.31490464962 -540.0
-16.1631416398 -8.79277273293 -541.0
-17.9200048615 -9.74850889955 -542.0
-19.6768680832 -10.7042450662 -543.0
-20.555299694 -11.1821131495 -544.0
-22.3121629158 -12.1378493161 -545.0
-23.1905945266 -12.6157173994 -546.0
-24.9474577483 -13.571453566 -547.0
-24.9474577483 -13.571453566 -548.0
-26.70432097 -14.5271897327 -549.0
-28.4611841918 -15.4829258993 -550.0
-28.4611841918 -15.4829258993 -551.0
-30.2180474135 -16.4386620659 -552.0
-30.2180474135 -16.4386620659 -553.0
-31.0964790243 -16.9165301492 -554.0
-31.9749106352 -17.3943982325 -555.0
-32.853342246 -17.8722663158 -556.0
-33.7317738569 -18.3501343992 -557.0
-34.6102054678 -18.8280024825 -558.0
-35.4886370786 -19.3058705658 -559.0
-36.3670686895 -19.7837386491 -560.0
-36.3670686895 -19.7837386491 -561.0
-37.2455003003 -20.2616067324 -562.0
-38.1239319112 -20.7394748157 -563.0
-39.002363522 -21.217342899 -564.0
-39.8807951329 -21.6952109823 -565.0
-39.8807951329 -21.6952109823 -566.0
-39.8807951329 -21.6952109823 -567.0
-41.6376583546 -22.650947149 -568.0
-41.6376583546 -22.650947149 -569.0
-42.5160899655 -23.1288152323 -570.0
-43.3945215763 -23.6066833156 -571.0
-43.3945215763 -23.6066833156 -572.0
-43.3945215763 -23.6066833156 -573.0
-44.2729531872 -24.0845513989 -574.0
-45.151384798 -24.5624194822 -575.0
-45.151384798 -24.5624194822 -576.0
-45.151384798 -24.5624194822 -577.0
-45.151384798 -24.5624194822 -578.0
-46.0298164089 -25.0402875655 -579.0
-46.9082480197 -25.5181556488 -580.0
-46.9082480197 -25.5181556488 -581.0
-46.9082480197 -25.5181556488 -582.0
-47.7866796306 -25.9960237321 -583.0
-47.7866796306 -25.9960237321 -584.0
-47.7866796306 -25.9960237321 -585.0
-48.6651112415 -26.4738918155 -586.0
-48.6651112415 -26.4738918155 -587.0
-48.6651112415 -26.4738918155 -588.0
-49.5435428523 -26.9517598988 -589.0
-49.5435428523 -26.9517598988 -590.0
-49.5435428523 -26.9517598988 -591.0
-49.5435428523 -26.9517598988 -592.0
-49.5435428523 -26.9517598988 -593.0
-50.4219744632 -27.4296279821 -594.0
-50.4219744632 -27.4296279821 -595.0
-50.4219744632 -27.4296279821 -596.0
-50.4219744632 -27.4296279821 -597.0
-50.4219744632 -27.4296279821 -598.0
-50.4219744632 -27.4296279821 -599.0
-51.300406074 -27.9074960654 -600.0
-51.300406074 -27.9074960654 -601.0
-51.300406074 -27.9074960654 -602.0
-51.300406074 -27.9074960654 -603.0
-51.300406074 -27.9074960654 -604.0
-51.300406074 -27.9074960654 -605.0
-51.300406074 -27.9074960654 -606.0
-51.300406074 -27.9074960654 -607.0
-51.300406074 -27.9074960654 -608.0
-51.300406074 -27.9074960654 -609.0
-51.300406074 -27.9074960654 -610.0
-51.300406074 -27.9074960654 -611.0
-51.300406074 -27.9074960654 -612.0
-51.300406074 -27.9074960654 -613.0
-51.300406074 -27.9074960654 -614.0
-51.300406074 -27.9074960654 -615.0
-51.300406074 -27.9074960654 -616.0
-51.300406074 -27.9074960654 -617.0
-51.300406074 -27.9074960654 -618.0
-51.300406074 -27.9074960654 -619.0
-51.300406074 -27.9074960654 -620.0
-51.300406074 -27.9074960654 -621.0
-51.300406074 -27.9074960654 -622.0
-50.4219744632 -27.4296279821 -623.0
-50.4219744632 -27.4296279821 -624.0
-50.4219744632 -27.4296279821 -625.0
-50.4219744632 -27.4296279821 -626.0
-50.4219744632 -27.4296279821 -627.0
-51.300406074 -27.9074960654 -628.0
-50.4219744632 -27.4296279821 -629.0
-50.4219744632 -27.4296279821 -630.0
-50.4219744632 -27.4296279821 -631.0
-50.4219744632 -27.4296279821 -632.0
-49.5435428523 -26.9517598988 -633.0
-49.5435428523 -26.9517598988 -634.0
-49.5435428523 -26.9517598988 -635.0
-49.5435428523 -26.9517598988 -636.0
-48.6651112415 -26.4738918155 -637.0
-48.6651112415 -26.4738918155 -638.0
-48.6651112415 -26.4738918155 -639.0
-48.6651112415 -26.4738918155 -640.0
-47.7866796306 -25.9960237321 -641.0
-47.7866796306 -25.9960237321 -642.0
-47.7866796306 -25.9960237321 -643.0
-47.7866796306 -25.9960237321 -644.0
-46.9082480197 -25.5181556488 -645.0
-46.9082480197 -25.5181556488 -646.0
-46.0298164089 -25.0402875655 -647.0
-46.0298164089 -25.0402875655 -648.0
-46.0298164089 -25.0402875655 -649.0
-46.0298164089 -25.0402875655 -650.0
-45.151384798 -24.5624194822 -651.0
-45.151384798 -24.5624194822 -652.0
-44.2729531872 -24.0845513989 -653.0
-44.2729531872 -24.0845513989 -654.0
-44.2729531872 -24.0845513989 -655.0
-43.3945215763 -23.6066833156 -656.0
-43.3945215763 -23.6066833156 -657.0
-42.5160899655 -23.1288152323 -658.0
-42.5160899655 -23.1288152323 -659.0
-42.5160899655 -23.1288152323 -660.0
-41.6376583546 -22.650947149 -661.0
-40.7592267438 -22.1730790656 -662.0
-40.7592267438 -22.1730790656 -663.0
-39.8807951329 -21.6952109823 -664.0
-39.8807951329 -21.6952109823 -665.0
-39.8807951329 -21.6952109823 -666.0
-39.8807951329 -21.6952109823 -667.0
