ply
format ascii 1.0
element vertex 1301
property float x
property float y
property float z
element face 0
element edge 0
end_header
-5.03415889131 -38.0685860554 -628.0
-4.90306100351 -37.0772166269 -629.0
-4.90306100351 -37.0772166269 -630.0
-4.90306100351 -37.0772166269 -631.0
-5.03415889131 -38.0685860554 -632.0
-5.03415889131 -38.0685860554 -633.0
-5.1652567791 -39.0599554839 -634.0
-5.1652567791 -39.0599554839 -635.0
-5.1652567791 -39.0599554839 -636.0
-5.1652567791 -39.0599554839 -637.0
-5.1652567791 -39.0599554839 -638.0
-5.1652567791 -39.0599554839 -639.0
-5.1652567791 -39.0599554839 -640.0
-5.2963546669 -40.0513249124 -641.0
-5.2963546669 -40.0513249124 -642.0
-5.2963546669 -40.0513249124 -643.0
-5.2963546669 -40.0513249124 -644.0
-5.2963546669 -40.0513249124 -645.0
-5.2963546669 -40.0513249124 -646.0
-5.2963546669 -40.0513249124 -647.0
-5.42745255469 -41.042694341 -648.0
-5.42745255469 -41.042694341 -649.0
-5.42745255469 -41.042694341 -650.0
-5.2963546669 -40.0513249124 -651.0
-5.2963546669 -40.0513249124 -652.0
-5.2963546669 -40.0513249124 -653.0
-5.42745255469 -41.042694341 -654.0
-5.42745255469 -41.042694341 -655.0
-5.42745255469 -41.042694341 -656.0
-5.55855044249 -42.0340637695 -657.0
-5.55855044249 -42.0340637695 -658.0
-5.55855044249 -42.0340637695 -659.0
-5.55855044249 -42.0340637695 -660.0
-5.55855044249 -42.0340637695 -661.0
-5.42745255469 -41.042694341 -662.0
-5.55855044249 -42.0340637695 -663.0
-5.55855044249 -42.0340637695 -664.0
-5.55855044249 -42.0340637695 -665.0
-5.42745255469 -41.042694341 -666.0
-5.42745255469 -41.042694341 -667.0
-5.42745255469 -41.042694341 -668.0
-5.42745255469 -41.042694341 -669.0
-5.42745255469 -41.042694341 -670.0
-5.42745255469 -41.042694341 -671.0
-5.42745255469 -41.042694341 -672.0
-5.42745255469 -41.042694341 -673.0
-5.42745255469 -41.042694341 -674.0
-5.42745255469 -41.042694341 -675.0
-5.42745255469 -41.042694341 -676.0
-5.42745255469 -41.042694341 -677.0
-5.42745255469 -41.042694341 -678.0
-5.2963546669 -40.0513249124 -679.0
-5.2963546669 -40.0513249124 -680.0
-5.2963546669 -40.0513249124 -681.0
-5.2963546669 -40.0513249124 -682.0
-5.2963546669 -40.0513249124 -683.0
-5.1652567791 -39.0599554839 -684.0
-5.1652567791 -39.0599554839 -685.0
-5.1652567791 -39.0599554839 -686.0
-5.1652567791 -39.0599554839 -687.0
-5.1652567791 -39.0599554839 -688.0
-5.1652567791 -39.0599554839 -689.0
-5.03415889131 -38.0685860554 -690.0
-5.03415889131 -38.0685860554 -691.0
-4.90306100351 -37.0772166269 -692.0
-4.90306100351 -37.0772166269 -693.0
-4.90306100351 -37.0772166269 -694.0
-4.90306100351 -37.0772166269 -695.0
-4.90306100351 -37.0772166269 -696.0
-4.90306100351 -37.0772166269 -697.0
-4.77196311572 -36.0858471983 -698.0
-4.90306100351 -37.0772166269 -699.0
-4.90306100351 -37.0772166269 -700.0
-4.64086522793 -35.0944777698 -701.0
-4.77196311572 -36.0858471983 -702.0
-4.64086522793 -35.0944777698 -703.0
-4.50976734013 -34.1031083413 -704.0
-4.50976734013 -34.1031083413 -705.0
-4.50976734013 -34.1031083413 -706.0
-4.50976734013 -34.1031083413 -707.0
-4.50976734013 -34.1031083413 -708.0
-4.37866945234 -33.1117389128 -709.0
-4.24757156454 -32.1203694842 -710.0
-4.24757156454 -32.1203694842 -711.0
-4.11647367675 -31.1290000557 -712.0
-4.11647367675 -31.1290000557 -713.0
-3.98537578895 -30.1376306272 -714.0
-3.98537578895 -30.1376306272 -715.0
-3.85427790116 -29.1462611987 -716.0
-3.72318001336 -28.1548917701 -717.0
-3.72318001336 -28.1548917701 -718.0
-3.59208212557 -27.1635223416 -719.0
-3.46098423777 -26.1721529131 -720.0
-3.46098423777 -26.1721529131 -721.0
-3.32988634998 -25.1807834846 -722.0
-3.19878846219 -24.189414056 -723.0
-3.19878846219 -24.189414056 -724.0
-3.06769057439 -23.1980446275 -725.0
-2.9365926866 -22.206675199 -726.0
-2.9365926866 -22.206675199 -727.0
32.5844153537 203.00151693 -320.0
-0.0633938041902 -0.394944585468 -576.0
-0.221878314666 -1.38230604914 -577.0
-0.380362825141 -2.36966751281 -578.0
-0.697331846092 -4.34439044015 -579.0
-0.855816356567 -5.33175190381 -580.0
-1.17278537752 -7.30647483115 -581.0
-1.33126988799 -8.29383629482 -582.0
-1.80672341942 -11.2559206858 -583.0
-1.80672341942 -11.2559206858 -584.0
-1.9652079299 -12.2432821495 -585.0
-2.12369244037 -13.2306436132 -586.0
-2.44066146132 -15.2053665405 -587.0
-2.75763048227 -17.1800894678 -588.0
-2.75763048227 -17.1800894678 -589.0
-2.91611499275 -18.1674509315 -590.0
-3.07459950322 -19.1548123952 -591.0
-3.2330840137 -20.1421738589 -592.0
-3.39156852417 -21.1295353225 -593.0
-3.55005303465 -22.1168967862 -594.0
-3.55005303465 -22.1168967862 -595.0
-3.70853754513 -23.1042582499 -596.0
-3.8670220556 -24.0916197135 -597.0
-4.02550656608 -25.0789811772 -598.0
-4.02550656608 -25.0789811772 -599.0
-4.18399107655 -26.0663426409 -600.0
-4.18399107655 -26.0663426409 -601.0
-4.18399107655 -26.0663426409 -602.0
-4.34247558703 -27.0537041045 -603.0
-4.34247558703 -27.0537041045 -604.0
-4.5009600975 -28.0410655682 -605.0
-4.65944460798 -29.0284270319 -606.0
-4.65944460798 -29.0284270319 -607.0
-4.81792911845 -30.0157884955 -608.0
-4.97641362893 -31.0031499592 -609.0
-4.81792911845 -30.0157884955 -610.0
-4.81792911845 -30.0157884955 -611.0
-4.97641362893 -31.0031499592 -612.0
-5.1348981394 -31.9905114229 -613.0
-5.1348981394 -31.9905114229 -614.0
-5.1348981394 -31.9905114229 -615.0
-5.29338264988 -32.9778728866 -616.0
-5.45186716035 -33.9652343502 -617.0
-5.29338264988 -32.9778728866 -618.0
-5.45186716035 -33.9652343502 -619.0
-5.61035167083 -34.9525958139 -620.0
-5.76883618131 -35.9399572776 -621.0
-5.61035167083 -34.9525958139 -622.0
-5.61035167083 -34.9525958139 -623.0
-5.76883618131 -35.9399572776 -624.0
-5.76883618131 -35.9399572776 -625.0
-5.76883618131 -35.9399572776 -626.0
-5.76883618131 -35.9399572776 -627.0
-5.76883618131 -35.9399572776 -628.0
-5.76883618131 -35.9399572776 -629.0
-5.76883618131 -35.9399572776 -630.0
-5.92732069178 -36.9273187412 -631.0
-5.92732069178 -36.9273187412 -632.0
-6.08580520226 -37.9146802049 -633.0
-6.08580520226 -37.9146802049 -634.0
-6.08580520226 -37.9146802049 -635.0
-6.08580520226 -37.9146802049 -636.0
-6.08580520226 -37.9146802049 -637.0
-6.08580520226 -37.9146802049 -638.0
-6.24428971273 -38.9020416686 -639.0
-6.08580520226 -37.9146802049 -640.0
-6.24428971273 -38.9020416686 -641.0
-6.40277422321 -39.8894031322 -642.0
-6.24428971273 -38.9020416686 -643.0
-6.40277422321 -39.8894031322 -644.0
-6.40277422321 -39.8894031322 -645.0
-6.40277422321 -39.8894031322 -646.0
-6.56125873368 -40.8767645959 -647.0
-6.40277422321 -39.8894031322 -648.0
-6.56125873368 -40.8767645959 -649.0
-6.40277422321 -39.8894031322 -650.0
-6.40277422321 -39.8894031322 -651.0
-6.40277422321 -39.8894031322 -652.0
-6.40277422321 -39.8894031322 -653.0
-6.40277422321 -39.8894031322 -654.0
-6.56125873368 -40.8767645959 -655.0
-6.56125873368 -40.8767645959 -656.0
-6.71974324416 -41.8641260596 -657.0
-6.56125873368 -40.8767645959 -658.0
-6.56125873368 -40.8767645959 -659.0
-6.56125873368 -40.8767645959 -660.0
-6.56125873368 -40.8767645959 -661.0
-6.40277422321 -39.8894031322 -662.0
-6.56125873368 -40.8767645959 -663.0
-6.56125873368 -40.8767645959 -664.0
-6.56125873368 -40.8767645959 -665.0
-6.56125873368 -40.8767645959 -666.0
-6.56125873368 -40.8767645959 -667.0
-6.56125873368 -40.8767645959 -668.0
-6.40277422321 -39.8894031322 -669.0
-6.40277422321 -39.8894031322 -670.0
-6.56125873368 -40.8767645959 -671.0
-6.56125873368 -40.8767645959 -672.0
-6.56125873368 -40.8767645959 -673.0
-6.40277422321 -39.8894031322 -674.0
-6.40277422321 -39.8894031322 -675.0
-6.40277422321 -39.8894031322 -676.0
-6.40277422321 -39.8894031322 -677.0
-6.40277422321 -39.8894031322 -678.0
-6.56125873368 -40.8767645959 -679.0
-6.40277422321 -39.8894031322 -680.0
-6.40277422321 -39.8894031322 -681.0
-6.24428971273 -38.9020416686 -682.0
-6.24428971273 -38.9020416686 -683.0
-6.24428971273 -38.9020416686 -684.0
-6.24428971273 -38.9020416686 -685.0
-6.24428971273 -38.9020416686 -686.0
-6.24428971273 -38.9020416686 -687.0
-6.24428971273 -38.9020416686 -688.0
-6.24428971273 -38.9020416686 -689.0
-6.24428971273 -38.9020416686 -690.0
-6.24428971273 -38.9020416686 -691.0
-6.24428971273 -38.9020416686 -692.0
-6.08580520226 -37.9146802049 -693.0
-6.08580520226 -37.9146802049 -694.0
-6.08580520226 -37.9146802049 -695.0
-5.92732069178 -36.9273187412 -696.0
-5.76883618131 -35.9399572776 -697.0
-5.76883618131 -35.9399572776 -698.0
-5.76883618131 -35.9399572776 -699.0
-5.61035167083 -34.9525958139 -700.0
-5.61035167083 -34.9525958139 -701.0
-5.61035167083 -34.9525958139 -702.0
-5.61035167083 -34.9525958139 -703.0
-5.45186716035 -33.9652343502 -704.0
-5.45186716035 -33.9652343502 -705.0
-5.29338264988 -32.9778728866 -706.0
-5.29338264988 -32.9778728866 -707.0
-5.29338264988 -32.9778728866 -708.0
-5.1348981394 -31.9905114229 -709.0
-4.97641362893 -31.0031499592 -710.0
-4.97641362893 -31.0031499592 -711.0
-4.97641362893 -31.0031499592 -712.0
-4.81792911845 -30.0157884955 -713.0
-4.81792911845 -30.0157884955 -714.0
-4.81792911845 -30.0157884955 -715.0
-4.65944460798 -29.0284270319 -716.0
-4.5009600975 -28.0410655682 -717.0
-4.5009600975 -28.0410655682 -718.0
-4.5009600975 -28.0410655682 -719.0
-4.18399107655 -26.0663426409 -720.0
-4.18399107655 -26.0663426409 -721.0
-4.02550656608 -25.0789811772 -722.0
-3.8670220556 -24.0916197135 -723.0
-3.8670220556 -24.0916197135 -724.0
-3.70853754513 -23.1042582499 -725.0
-3.55005303465 -22.1168967862 -726.0
-3.39156852417 -21.1295353225 -727.0
-0.260049607465 -1.37563592627 -576.0
-0.260049607465 -1.37563592627 -577.0
-0.445799327082 -2.35823301647 -578.0
-0.817298766317 -4.32342719686 -579.0
-1.00304848594 -5.30602428706 -580.0
-1.37454792517 -7.27121846745 -581.0
-1.74604736441 -9.23641264784 -582.0
-1.93179708402 -10.219009738 -583.0
-2.30329652326 -12.1842039184 -584.0
-2.48904624288 -13.1668010086 -585.0
-2.67479596249 -14.1493980988 -586.0
-2.86054568211 -15.131995189 -587.0
-3.04629540173 -16.1145922792 -588.0
-3.23204512135 -17.0971893694 -589.0
-3.41779484096 -18.0797864596 -590.0
-3.60354456058 -19.0623835498 -591.0
-3.7892942802 -20.04498064 -592.0
-3.97504399982 -21.0275777302 -593.0
-4.16079371943 -22.0101748204 -594.0
-4.16079371943 -22.0101748204 -595.0
-4.34654343905 -22.9927719106 -596.0
-4.34654343905 -22.9927719106 -597.0
-4.71804287829 -24.957966091 -598.0
-4.71804287829 -24.957966091 -599.0
-4.9037925979 -25.9405631812 -600.0
-5.08954231752 -26.9231602714 -601.0
-4.9037925979 -25.9405631812 -602.0
-5.08954231752 -26.9231602714 -603.0
-5.27529203714 -27.9057573616 -604.0
-5.27529203714 -27.9057573616 -605.0
-5.46104175676 -28.8883544518 -606.0
-5.46104175676 -28.8883544518 -607.0
-5.46104175676 -28.8883544518 -608.0
-5.64679147638 -29.870951542 -609.0
-5.64679147638 -29.870951542 -610.0
-5.64679147638 -29.870951542 -611.0
-5.64679147638 -29.870951542 -612.0
-5.83254119599 -30.8535486322 -613.0
-6.01829091561 -31.8361457224 -614.0
-6.01829091561 -31.8361457224 -615.0
-6.20404063523 -32.8187428126 -616.0
-6.20404063523 -32.8187428126 -617.0
-6.20404063523 -32.8187428126 -618.0
-6.20404063523 -32.8187428126 -619.0
-6.38979035485 -33.8013399027 -620.0
-6.38979035485 -33.8013399027 -621.0
-6.57554007446 -34.7839369929 -622.0
-6.57554007446 -34.7839369929 -623.0
-6.57554007446 -34.7839369929 -624.0
-6.76128979408 -35.7665340831 -625.0
-6.76128979408 -35.7665340831 -626.0
-6.76128979408 -35.7665340831 -627.0
-6.76128979408 -35.7665340831 -628.0
-6.9470395137 -36.7491311733 -629.0
-7.13278923332 -37.7317282635 -630.0
-6.9470395137 -36.7491311733 -631.0
-7.13278923332 -37.7317282635 -632.0
-7.13278923332 -37.7317282635 -633.0
-7.13278923332 -37.7317282635 -634.0
-7.13278923332 -37.7317282635 -635.0
-7.31853895293 -38.7143253537 -636.0
-7.31853895293 -38.7143253537 -637.0
-7.13278923332 -37.7317282635 -638.0
-7.31853895293 -38.7143253537 -639.0
-7.31853895293 -38.7143253537 -640.0
-7.50428867255 -39.6969224439 -641.0
-7.31853895293 -38.7143253537 -642.0
-7.31853895293 -38.7143253537 -643.0
-7.13278923332 -37.7317282635 -644.0
-7.31853895293 -38.7143253537 -645.0
-7.50428867255 -39.6969224439 -646.0
-7.50428867255 -39.6969224439 -647.0
-7.50428867255 -39.6969224439 -648.0
-7.50428867255 -39.6969224439 -649.0
-7.50428867255 -39.6969224439 -650.0
-7.50428867255 -39.6969224439 -651.0
-7.50428867255 -39.6969224439 -652.0
-7.50428867255 -39.6969224439 -653.0
-7.50428867255 -39.6969224439 -654.0
-7.69003839217 -40.6795195341 -655.0
-7.69003839217 -40.6795195341 -656.0
-7.69003839217 -40.6795195341 -657.0
-7.69003839217 -40.6795195341 -658.0
-7.69003839217 -40.6795195341 -659.0
-7.69003839217 -40.6795195341 -660.0
-7.69003839217 -40.6795195341 -661.0
-7.69003839217 -40.6795195341 -662.0
-7.69003839217 -40.6795195341 -663.0
-7.69003839217 -40.6795195341 -664.0
-7.50428867255 -39.6969224439 -665.0
-7.69003839217 -40.6795195341 -666.0
-7.69003839217 -40.6795195341 -667.0
-7.69003839217 -40.6795195341 -668.0
-7.50428867255 -39.6969224439 -669.0
-7.50428867255 -39.6969224439 -670.0
-7.50428867255 -39.6969224439 -671.0
-7.50428867255 -39.6969224439 -672.0
-7.50428867255 -39.6969224439 -673.0
-7.50428867255 -39.6969224439 -674.0
-7.50428867255 -39.6969224439 -675.0
-7.50428867255 -39.6969224439 -676.0
-7.50428867255 -39.6969224439 -677.0
-7.50428867255 -39.6969224439 -678.0
-7.50428867255 -39.6969224439 -679.0
-7.31853895293 -38.7143253537 -680.0
-7.31853895293 -38.7143253537 -681.0
-7.31853895293 -38.7143253537 -682.0
-7.31853895293 -38.7143253537 -683.0
-7.31853895293 -38.7143253537 -684.0
-7.31853895293 -38.7143253537 -685.0
-7.31853895293 -38.7143253537 -686.0
-7.13278923332 -37.7317282635 -687.0
-7.13278923332 -37.7317282635 -688.0
-7.13278923332 -37.7317282635 -689.0
-7.13278923332 -37.7317282635 -690.0
-7.13278923332 -37.7317282635 -691.0
-7.13278923332 -37.7317282635 -692.0
-6.9470395137 -36.7491311733 -693.0
-6.9470395137 -36.7491311733 -694.0
-6.9470395137 -36.7491311733 -695.0
-6.9470395137 -36.7491311733 -696.0
-6.76128979408 -35.7665340831 -697.0
-6.76128979408 -35.7665340831 -698.0
-6.57554007446 -34.7839369929 -699.0
-6.57554007446 -34.7839369929 -700.0
-6.57554007446 -34.7839369929 -701.0
-6.38979035485 -33.8013399027 -702.0
-6.38979035485 -33.8013399027 -703.0
-6.38979035485 -33.8013399027 -704.0
-6.20404063523 -32.8187428126 -705.0
-6.20404063523 -32.8187428126 -706.0
-6.01829091561 -31.8361457224 -707.0
-6.01829091561 -31.8361457224 -708.0
-6.01829091561 -31.8361457224 -709.0
-6.01829091561 -31.8361457224 -710.0
-5.83254119599 -30.8535486322 -711.0
-5.83254119599 -30.8535486322 -712.0
-5.64679147638 -29.870951542 -713.0
-5.46104175676 -28.8883544518 -714.0
-5.46104175676 -28.8883544518 -715.0
-5.27529203714 -27.9057573616 -716.0
-5.08954231752 -26.9231602714 -717.0
-5.08954231752 -26.9231602714 -718.0
-5.08954231752 -26.9231602714 -719.0
-4.9037925979 -25.9405631812 -720.0
-4.71804287829 -24.957966091 -721.0
-4.53229315867 -23.9753690008 -722.0
-4.53229315867 -23.9753690008 -723.0
-4.34654343905 -22.9927719106 -724.0
-4.16079371943 -22.0101748204 -725.0
-3.97504399982 -21.0275777302 -726.0
-3.97504399982 -21.0275777302 -727.0
-1.56029764479 -8.25381555765 -733.0
-1.56029764479 -8.25381555765 -734.0
43.5537396055 199.910559417 -326.0
43.5537396055 199.910559417 -327.0
43.5537396055 199.910559417 -328.0
-0.29802167863 -1.36791194127 -576.0
-0.510894306223 -2.34499189932 -577.0
-0.510894306223 -2.34499189932 -578.0
-0.936639561409 -4.29915181542 -579.0
-1.149512189 -5.27623177347 -580.0
-1.36238481659 -6.25331173152 -581.0
-1.78813007178 -8.20747164761 -582.0
-2.21387532697 -10.1616315637 -583.0
-2.42674795456 -11.1387115218 -584.0
-2.63962058215 -12.1157914798 -585.0
-3.06536583734 -14.0699513959 -586.0
-3.49111109252 -16.024111312 -587.0
-3.49111109252 -16.024111312 -588.0
-3.70398372012 -17.0011912701 -589.0
-3.91685634771 -17.9782712281 -590.0
-3.91685634771 -17.9782712281 -591.0
-4.34260160289 -19.9324311442 -592.0
-4.34260160289 -19.9324311442 -593.0
-4.55547423049 -20.9095111023 -594.0
-4.76834685808 -21.8865910603 -595.0
-4.98121948567 -22.8636710184 -596.0
-5.19409211327 -23.8407509764 -597.0
-5.19409211327 -23.8407509764 -598.0
-5.19409211327 -23.8407509764 -599.0
-5.40696474086 -24.8178309345 -600.0
-5.61983736845 -25.7949108925 -601.0
-5.83270999604 -26.7719908506 -602.0
-5.83270999604 -26.7719908506 -603.0
-5.83270999604 -26.7719908506 -604.0
-5.83270999604 -26.7719908506 -605.0
-6.04558262364 -27.7490708086 -606.0
-6.04558262364 -27.7490708086 -607.0
-6.25845525123 -28.7261507667 -608.0
-6.47132787882 -29.7032307247 -609.0
-6.47132787882 -29.7032307247 -610.0
-6.47132787882 -29.7032307247 -611.0
-6.68420050642 -30.6803106827 -612.0
-6.89707313401 -31.6573906408 -613.0
-6.89707313401 -31.6573906408 -614.0
-6.89707313401 -31.6573906408 -615.0
-6.89707313401 -31.6573906408 -616.0
-7.32281838919 -33.6115505569 -617.0
-7.32281838919 -33.6115505569 -618.0
-7.32281838919 -33.6115505569 -619.0
-7.32281838919 -33.6115505569 -620.0
-7.32281838919 -33.6115505569 -621.0
-7.32281838919 -33.6115505569 -622.0
-7.32281838919 -33.6115505569 -623.0
-7.53569101679 -34.5886305149 -624.0
-7.53569101679 -34.5886305149 -625.0
-7.53569101679 -34.5886305149 -626.0
-7.74856364438 -35.565710473 -627.0
-7.74856364438 -35.565710473 -628.0
-7.74856364438 -35.565710473 -629.0
-7.74856364438 -35.565710473 -630.0
-7.74856364438 -35.565710473 -631.0
-7.96143627197 -36.542790431 -632.0
-7.96143627197 -36.542790431 -633.0
-7.96143627197 -36.542790431 -634.0
-8.17430889957 -37.5198703891 -635.0
-8.17430889957 -37.5198703891 -636.0
-8.38718152716 -38.4969503471 -637.0
-8.38718152716 -38.4969503471 -638.0
-8.38718152716 -38.4969503471 -639.0
-8.38718152716 -38.4969503471 -640.0
-8.38718152716 -38.4969503471 -641.0
-8.38718152716 -38.4969503471 -642.0
-8.38718152716 -38.4969503471 -643.0
-8.38718152716 -38.4969503471 -644.0
-8.38718152716 -38.4969503471 -645.0
-8.38718152716 -38.4969503471 -646.0
-8.60005415475 -39.4740303052 -647.0
-8.60005415475 -39.4740303052 -648.0
-8.60005415475 -39.4740303052 -649.0
-8.60005415475 -39.4740303052 -650.0
-8.38718152716 -38.4969503471 -651.0
-8.60005415475 -39.4740303052 -652.0
-8.60005415475 -39.4740303052 -653.0
-8.60005415475 -39.4740303052 -654.0
-8.60005415475 -39.4740303052 -655.0
-8.60005415475 -39.4740303052 -656.0
-8.60005415475 -39.4740303052 -657.0
-8.81292678234 -40.4511102632 -658.0
-8.60005415475 -39.4740303052 -659.0
-8.60005415475 -39.4740303052 -660.0
-8.60005415475 -39.4740303052 -661.0
-8.60005415475 -39.4740303052 -662.0
-8.81292678234 -40.4511102632 -663.0
-8.60005415475 -39.4740303052 -664.0
-8.60005415475 -39.4740303052 -665.0
-8.60005415475 -39.4740303052 -666.0
-8.60005415475 -39.4740303052 -667.0
-8.81292678234 -40.4511102632 -668.0
-8.60005415475 -39.4740303052 -669.0
-8.60005415475 -39.4740303052 -670.0
-8.60005415475 -39.4740303052 -671.0
-8.60005415475 -39.4740303052 -672.0
-8.60005415475 -39.4740303052 -673.0
-8.60005415475 -39.4740303052 -674.0
-8.60005415475 -39.4740303052 -675.0
-8.38718152716 -38.4969503471 -676.0
-8.38718152716 -38.4969503471 -677.0
-8.38718152716 -38.4969503471 -678.0
-8.60005415475 -39.4740303052 -679.0
-8.38718152716 -38.4969503471 -680.0
-8.38718152716 -38.4969503471 -681.0
-8.38718152716 -38.4969503471 -682.0
-8.38718152716 -38.4969503471 -683.0
-8.38718152716 -38.4969503471 -684.0
-8.38718152716 -38.4969503471 -685.0
-8.17430889957 -37.5198703891 -686.0
-8.17430889957 -37.5198703891 -687.0
-8.17430889957 -37.5198703891 -688.0
-7.96143627197 -36.542790431 -689.0
-8.17430889957 -37.5198703891 -690.0
-8.17430889957 -37.5198703891 -691.0
-7.96143627197 -36.542790431 -692.0
-7.96143627197 -36.542790431 -693.0
-7.74856364438 -35.565710473 -694.0
-7.96143627197 -36.542790431 -695.0
-7.74856364438 -35.565710473 -696.0
-7.74856364438 -35.565710473 -697.0
-7.53569101679 -34.5886305149 -698.0
-7.53569101679 -34.5886305149 -699.0
-7.53569101679 -34.5886305149 -700.0
-7.53569101679 -34.5886305149 -701.0
-7.32281838919 -33.6115505569 -702.0
-7.32281838919 -33.6115505569 -703.0
-7.1099457616 -32.6344705988 -704.0
-7.1099457616 -32.6344705988 -705.0
-7.1099457616 -32.6344705988 -706.0
-6.89707313401 -31.6573906408 -707.0
-6.89707313401 -31.6573906408 -708.0
-6.68420050642 -30.6803106827 -709.0
-6.68420050642 -30.6803106827 -710.0
-6.68420050642 -30.6803106827 -711.0
-6.47132787882 -29.7032307247 -712.0
-6.47132787882 -29.7032307247 -713.0
-6.25845525123 -28.7261507667 -714.0
-6.04558262364 -27.7490708086 -715.0
-5.83270999604 -26.7719908506 -716.0
-5.83270999604 -26.7719908506 -717.0
-5.83270999604 -26.7719908506 -718.0
-5.61983736845 -25.7949108925 -719.0
-5.40696474086 -24.8178309345 -720.0
-5.40696474086 -24.8178309345 -721.0
-5.19409211327 -23.8407509764 -722.0
-5.19409211327 -23.8407509764 -723.0
-4.98121948567 -22.8636710184 -724.0
-4.55547423049 -20.9095111023 -725.0
-4.34260160289 -19.9324311442 -726.0
49.0697204543 198.628604522 -327.0
49.0697204543 198.628604522 -328.0
49.0697204543 198.628604522 -329.0
-0.0959329823154 -0.388325717541 -576.0
-0.335765438104 -1.35914001139 -577.0
-0.575597893893 -2.32995430525 -578.0
-0.815430349681 -3.3007685991 -579.0
-1.05526280547 -4.27158289296 -580.0
-1.77476017284 -7.18402577452 -581.0
-2.01459262862 -8.15484006837 -582.0
-2.25442508441 -9.12565436222 -583.0
-2.73408999599 -11.0672829499 -584.0
-2.97392245178 -12.0380972438 -585.0
-3.21375490757 -13.0089115376 -586.0
-3.45358736336 -13.9797258315 -587.0
-3.93325227493 -15.9213544192 -588.0
-4.17308473072 -16.8921687131 -589.0
-4.41291718651 -17.8629830069 -590.0
-4.6527496423 -18.8337973008 -591.0
-4.6527496423 -18.8337973008 -592.0
-4.89258209809 -19.8046115946 -593.0
-5.13241455388 -20.7754258885 -594.0
-5.13241455388 -20.7754258885 -595.0
-5.37224700966 -21.7462401823 -596.0
-5.37224700966 -21.7462401823 -597.0
-5.61207946545 -22.7170544762 -598.0
-5.85191192124 -23.68786877 -599.0
-6.09174437703 -24.6586830639 -600.0
-6.33157683282 -25.6294973577 -601.0
-6.33157683282 -25.6294973577 -602.0
-6.33157683282 -25.6294973577 -603.0
-6.57140928861 -26.6003116516 -604.0
-6.8112417444 -27.5711259454 -605.0
-6.8112417444 -27.5711259454 -606.0
-6.8112417444 -27.5711259454 -607.0
-7.05107420018 -28.5419402393 -608.0
-7.05107420018 -28.5419402393 -609.0
-7.29090665597 -29.5127545331 -610.0
-7.29090665597 -29.5127545331 -611.0
-7.53073911176 -30.483568827 -612.0
-7.53073911176 -30.483568827 -613.0
-7.77057156755 -31.4543831209 -614.0
-7.77057156755 -31.4543831209 -615.0
-7.77057156755 -31.4543831209 -616.0
-8.01040402334 -32.4251974147 -617.0
-8.01040402334 -32.4251974147 -618.0
-8.01040402334 -32.4251974147 -619.0
-8.25023647913 -33.3960117086 -620.0
-8.25023647913 -33.3960117086 -621.0
-8.25023647913 -33.3960117086 -622.0
-8.49006893492 -34.3668260024 -623.0
-8.49006893492 -34.3668260024 -624.0
-8.49006893492 -34.3668260024 -625.0
-8.49006893492 -34.3668260024 -626.0
-8.72990139071 -35.3376402963 -627.0
-8.72990139071 -35.3376402963 -628.0
-8.72990139071 -35.3376402963 -629.0
-8.72990139071 -35.3376402963 -630.0
-8.72990139071 -35.3376402963 -631.0
-8.72990139071 -35.3376402963 -632.0
-8.96973384649 -36.3084545901 -633.0
-9.20956630228 -37.279268884 -634.0
-9.20956630228 -37.279268884 -635.0
-9.20956630228 -37.279268884 -636.0
-9.20956630228 -37.279268884 -637.0
-9.20956630228 -37.279268884 -638.0
-9.20956630228 -37.279268884 -639.0
-9.44939875807 -38.2500831778 -640.0
-9.20956630228 -37.279268884 -641.0
-9.20956630228 -37.279268884 -642.0
-9.44939875807 -38.2500831778 -643.0
-9.44939875807 -38.2500831778 -644.0
-9.44939875807 -38.2500831778 -645.0
-9.44939875807 -38.2500831778 -646.0
-9.44939875807 -38.2500831778 -647.0
-9.44939875807 -38.2500831778 -648.0
-9.68923121386 -39.2208974717 -649.0
-9.68923121386 -39.2208974717 -650.0
-9.44939875807 -38.2500831778 -651.0
-9.68923121386 -39.2208974717 -652.0
-9.68923121386 -39.2208974717 -653.0
-9.68923121386 -39.2208974717 -654.0
-9.68923121386 -39.2208974717 -655.0
-9.68923121386 -39.2208974717 -656.0
-9.68923121386 -39.2208974717 -657.0
-9.68923121386 -39.2208974717 -658.0
-9.44939875807 -38.2500831778 -659.0
-9.44939875807 -38.2500831778 -660.0
-9.68923121386 -39.2208974717 -661.0
-9.68923121386 -39.2208974717 -662.0
-9.68923121386 -39.2208974717 -663.0
-9.44939875807 -38.2500831778 -664.0
-9.68923121386 -39.2208974717 -665.0
-9.68923121386 -39.2208974717 -666.0
-9.68923121386 -39.2208974717 -667.0
-9.68923121386 -39.2208974717 -668.0
-9.68923121386 -39.2208974717 -669.0
-9.68923121386 -39.2208974717 -670.0
-9.68923121386 -39.2208974717 -671.0
-9.68923121386 -39.2208974717 -672.0
-9.68923121386 -39.2208974717 -673.0
-9.68923121386 -39.2208974717 -674.0
-9.44939875807 -38.2500831778 -675.0
-9.44939875807 -38.2500831778 -676.0
-9.44939875807 -38.2500831778 -677.0
-9.44939875807 -38.2500831778 -678.0
-9.44939875807 -38.2500831778 -679.0
-9.44939875807 -38.2500831778 -680.0
-9.44939875807 -38.2500831778 -681.0
-9.44939875807 -38.2500831778 -682.0
-9.44939875807 -38.2500831778 -683.0
-9.44939875807 -38.2500831778 -684.0
-9.20956630228 -37.279268884 -685.0
-9.20956630228 -37.279268884 -686.0
-9.20956630228 -37.279268884 -687.0
-9.20956630228 -37.279268884 -688.0
-8.96973384649 -36.3084545901 -689.0
-8.96973384649 -36.3084545901 -690.0
-8.96973384649 -36.3084545901 -691.0
-8.96973384649 -36.3084545901 -692.0
-8.96973384649 -36.3084545901 -693.0
-8.72990139071 -35.3376402963 -694.0
-8.96973384649 -36.3084545901 -695.0
-8.96973384649 -36.3084545901 -696.0
-8.72990139071 -35.3376402963 -697.0
-8.49006893492 -34.3668260024 -698.0
-8.49006893492 -34.3668260024 -699.0
-8.49006893492 -34.3668260024 -700.0
-8.25023647913 -33.3960117086 -701.0
-8.01040402334 -32.4251974147 -702.0
-8.25023647913 -33.3960117086 -703.0
-8.01040402334 -32.4251974147 -704.0
-8.01040402334 -32.4251974147 -705.0
-8.01040402334 -32.4251974147 -706.0
-8.01040402334 -32.4251974147 -707.0
-7.53073911176 -30.483568827 -708.0
-7.53073911176 -30.483568827 -709.0
-7.53073911176 -30.483568827 -710.0
-7.53073911176 -30.483568827 -711.0
-7.29090665597 -29.5127545331 -712.0
-7.29090665597 -29.5127545331 -713.0
-7.05107420018 -28.5419402393 -714.0
-6.8112417444 -27.5711259454 -715.0
-6.57140928861 -26.6003116516 -716.0
-6.57140928861 -26.6003116516 -717.0
-6.33157683282 -25.6294973577 -718.0
-6.33157683282 -25.6294973577 -719.0
-6.09174437703 -24.6586830639 -720.0
-6.09174437703 -24.6586830639 -721.0
-5.85191192124 -23.68786877 -722.0
-5.61207946545 -22.7170544762 -723.0
-5.37224700966 -21.7462401823 -724.0
-5.37224700966 -21.7462401823 -725.0
-4.89258209809 -19.8046115946 -726.0
-2.25442508441 -9.12565436222 -732.0
-2.01459262862 -8.15484006837 -733.0
-192.5980169 -696.252658082 -5.0
-192.33140835 -695.288853184 -6.0
54.8147179882 198.158286962 -308.0
54.2815008871 196.230677167 -326.0
54.5481094377 197.194482065 -327.0
-0.10664342021 -0.385521959071 -576.0
-0.10664342021 -0.385521959071 -577.0
-0.639860521263 -2.31313175442 -578.0
-0.639860521263 -2.31313175442 -579.0
-1.17307762232 -4.24074154978 -580.0
-1.70629472337 -6.16835134513 -581.0
-2.23951182442 -8.09596114049 -582.0
-2.23951182442 -8.09596114049 -583.0
-3.039337476 -10.9873758335 -584.0
-3.039337476 -10.9873758335 -585.0
-3.57255457705 -12.9149856289 -586.0
-4.1057716781 -14.8425954242 -587.0
-4.37238022863 -15.8064003219 -588.0
-4.37238022863 -15.8064003219 -589.0
-4.63898877916 -16.7702052196 -590.0
-4.90559732968 -17.7340101173 -591.0
-5.17220588021 -18.6978150149 -592.0
-5.17220588021 -18.6978150149 -593.0
-5.70542298126 -20.6254248103 -594.0
-5.97203153179 -21.589229708 -595.0
-5.97203153179 -21.589229708 -596.0
-5.97203153179 -21.589229708 -597.0
-6.23864008231 -22.5530346056 -598.0
-6.23864008231 -22.5530346056 -599.0
-6.50524863284 -23.5168395033 -600.0
-6.77185718337 -24.480644401 -601.0
-7.03846573389 -25.4444492987 -602.0
-7.03846573389 -25.4444492987 -603.0
-7.30507428442 -26.4082541964 -604.0
-7.30507428442 -26.4082541964 -605.0
-7.30507428442 -26.4082541964 -606.0
-7.83829138547 -28.3358639917 -607.0
-7.83829138547 -28.3358639917 -608.0
-7.83829138547 -28.3358639917 -609.0
-7.83829138547 -28.3358639917 -610.0
-8.104899936 -29.2996688894 -611.0
-8.104899936 -29.2996688894 -612.0
-8.104899936 -29.2996688894 -613.0
-8.104899936 -29.2996688894 -614.0
-8.37150848652 -30.2634737871 -615.0
-8.63811703705 -31.2272786847 -616.0
-8.63811703705 -31.2272786847 -617.0
-8.63811703705 -31.2272786847 -618.0
-8.90472558758 -32.1910835824 -619.0
-9.1713341381 -33.1548884801 -620.0
-9.1713341381 -33.1548884801 -621.0
-9.1713341381 -33.1548884801 -622.0
-9.1713341381 -33.1548884801 -623.0
-9.43794268863 -34.1186933778 -624.0
-9.43794268863 -34.1186933778 -625.0
-9.43794268863 -34.1186933778 -626.0
-9.70455123916 -35.0824982754 -627.0
-9.70455123916 -35.0824982754 -628.0
-9.70455123916 -35.0824982754 -629.0
-9.70455123916 -35.0824982754 -630.0
-9.70455123916 -35.0824982754 -631.0
-9.97115978968 -36.0463031731 -632.0
-9.97115978968 -36.0463031731 -633.0
-10.2377683402 -37.0101080708 -634.0
-9.97115978968 -36.0463031731 -635.0
-9.97115978968 -36.0463031731 -636.0
-9.97115978968 -36.0463031731 -637.0
-10.2377683402 -37.0101080708 -638.0
-10.2377683402 -37.0101080708 -639.0
-10.5043768907 -37.9739129685 -640.0
-10.2377683402 -37.0101080708 -641.0
-10.2377683402 -37.0101080708 -642.0
-10.2377683402 -37.0101080708 -643.0
-10.2377683402 -37.0101080708 -644.0
-10.5043768907 -37.9739129685 -645.0
-10.5043768907 -37.9739129685 -646.0
-10.5043768907 -37.9739129685 -647.0
-10.5043768907 -37.9739129685 -648.0
-10.5043768907 -37.9739129685 -649.0
-10.7709854413 -38.9377178662 -650.0
-10.5043768907 -37.9739129685 -651.0
-10.5043768907 -37.9739129685 -652.0
-10.5043768907 -37.9739129685 -653.0
-10.5043768907 -37.9739129685 -654.0
-10.5043768907 -37.9739129685 -655.0
-10.5043768907 -37.9739129685 -656.0
-10.5043768907 -37.9739129685 -657.0
-10.7709854413 -38.9377178662 -658.0
-10.5043768907 -37.9739129685 -659.0
-10.7709854413 -38.9377178662 -660.0
-10.7709854413 -38.9377178662 -661.0
-10.5043768907 -37.9739129685 -662.0
-10.7709854413 -38.9377178662 -663.0
-10.7709854413 -38.9377178662 -664.0
-10.7709854413 -38.9377178662 -665.0
-10.5043768907 -37.9739129685 -666.0
-10.7709854413 -38.9377178662 -667.0
-10.7709854413 -38.9377178662 -668.0
-10.5043768907 -37.9739129685 -669.0
-10.5043768907 -37.9739129685 -670.0
-10.5043768907 -37.9739129685 -671.0
-10.5043768907 -37.9739129685 -672.0
-10.5043768907 -37.9739129685 -673.0
-10.7709854413 -38.9377178662 -674.0
-10.7709854413 -38.9377178662 -675.0
-10.5043768907 -37.9739129685 -676.0
-10.5043768907 -37.9739129685 -677.0
-10.5043768907 -37.9739129685 -678.0
-10.5043768907 -37.9739129685 -679.0
-10.5043768907 -37.9739129685 -680.0
-10.5043768907 -37.9739129685 -681.0
-10.5043768907 -37.9739129685 -682.0
-10.2377683402 -37.0101080708 -683.0
-10.2377683402 -37.0101080708 -684.0
-10.2377683402 -37.0101080708 -685.0
-10.2377683402 -37.0101080708 -686.0
-10.2377683402 -37.0101080708 -687.0
-9.97115978968 -36.0463031731 -688.0
-9.97115978968 -36.0463031731 -689.0
-10.2377683402 -37.0101080708 -690.0
-9.97115978968 -36.0463031731 -691.0
-9.70455123916 -35.0824982754 -692.0
-9.70455123916 -35.0824982754 -693.0
-9.70455123916 -35.0824982754 -694.0
-9.70455123916 -35.0824982754 -695.0
-9.43794268863 -34.1186933778 -696.0
-9.43794268863 -34.1186933778 -697.0
-9.43794268863 -34.1186933778 -698.0
-9.43794268863 -34.1186933778 -699.0
-9.43794268863 -34.1186933778 -700.0
-9.1713341381 -33.1548884801 -701.0
-8.90472558758 -32.1910835824 -702.0
-8.90472558758 -32.1910835824 -703.0
-8.90472558758 -32.1910835824 -704.0
-8.90472558758 -32.1910835824 -705.0
-8.63811703705 -31.2272786847 -706.0
-8.37150848652 -30.2634737871 -707.0
-8.37150848652 -30.2634737871 -708.0
-8.104899936 -29.2996688894 -709.0
-8.104899936 -29.2996688894 -710.0
-8.104899936 -29.2996688894 -711.0
-7.83829138547 -28.3358639917 -712.0
-7.83829138547 -28.3358639917 -713.0
-7.57168283495 -27.372059094 -714.0
-7.30507428442 -26.4082541964 -715.0
-7.30507428442 -26.4082541964 -716.0
-7.30507428442 -26.4082541964 -717.0
-7.03846573389 -25.4444492987 -718.0
-6.77185718337 -24.480644401 -719.0
-6.77185718337 -24.480644401 -720.0
-6.50524863284 -23.5168395033 -721.0
-6.50524863284 -23.5168395033 -722.0
-6.23864008231 -22.5530346056 -723.0
-5.97203153179 -21.589229708 -724.0
-5.70542298126 -20.6254248103 -725.0
-5.70542298126 -20.6254248103 -726.0
-2.50612037495 -9.05976603816 -731.0
-2.50612037495 -9.05976603816 -732.0
-2.50612037495 -9.05976603816 -733.0
-2.23951182442 -8.09596114049 -734.0
59.9847096116 195.609290712 -327.0
0.17590823933 0.573634283613 -576.0
-0.117272159553 -0.382422855742 -577.0
-0.410452558437 -1.3384799951 -578.0
-0.703632957321 -2.29453713445 -579.0
-1.28999375509 -4.20665141316 -580.0
-1.87635455286 -6.11876569187 -581.0
-2.46271535062 -8.03087997058 -582.0
-3.04907614839 -9.94299424929 -583.0
-3.34225654727 -10.8990513886 -584.0
-3.63543694616 -11.855108528 -585.0
-3.92861734504 -12.8111656673 -586.0
-4.22179774393 -13.7672228067 -587.0
-4.51497814281 -14.7232799461 -588.0
-4.80815854169 -15.6793370854 -589.0
-5.10133894058 -16.6353942248 -590.0
-5.39451933946 -17.5914513641 -591.0
-5.68769973834 -18.5475085035 -592.0
-5.98088013723 -19.5035656428 -593.0
-5.98088013723 -19.5035656428 -594.0
-6.27406053611 -20.4596227822 -595.0
-6.56724093499 -21.4156799215 -596.0
-6.86042133388 -22.3717370609 -597.0
-6.86042133388 -22.3717370609 -598.0
-7.15360173276 -23.3277942002 -599.0
-7.44678213165 -24.2838513396 -600.0
-7.44678213165 -24.2838513396 -601.0
-7.73996253053 -25.239908479 -602.0
-7.73996253053 -25.239908479 -603.0
-7.73996253053 -25.239908479 -604.0
-8.03314292941 -26.1959656183 -605.0
-8.03314292941 -26.1959656183 -606.0
-8.3263233283 -27.1520227577 -607.0
-8.3263233283 -27.1520227577 -608.0
-8.61950372718 -28.108079897 -609.0
-8.61950372718 -28.108079897 -610.0
-8.61950372718 -28.108079897 -611.0
-8.91268412606 -29.0641370364 -612.0
-9.20586452495 -30.0201941757 -613.0
-8.91268412606 -29.0641370364 -614.0
-9.20586452495 -30.0201941757 -615.0
-9.49904492383 -30.9762513151 -616.0
-9.49904492383 -30.9762513151 -617.0
-9.49904492383 -30.9762513151 -618.0
-9.49904492383 -30.9762513151 -619.0
-9.79222532272 -31.9323084544 -620.0
-9.79222532272 -31.9323084544 -621.0
-10.0854057216 -32.8883655938 -622.0
-10.0854057216 -32.8883655938 -623.0
-10.0854057216 -32.8883655938 -624.0
-10.3785861205 -33.8444227331 -625.0
-10.3785861205 -33.8444227331 -626.0
-10.3785861205 -33.8444227331 -627.0
-10.6717665194 -34.8004798725 -628.0
-10.6717665194 -34.8004798725 -629.0
-10.6717665194 -34.8004798725 -630.0
-10.6717665194 -34.8004798725 -631.0
-10.6717665194 -34.8004798725 -632.0
-10.6717665194 -34.8004798725 -633.0
-10.6717665194 -34.8004798725 -634.0
-10.9649469183 -35.7565370119 -635.0
-10.9649469183 -35.7565370119 -636.0
-10.9649469183 -35.7565370119 -637.0
-10.9649469183 -35.7565370119 -638.0
-11.2581273171 -36.7125941512 -639.0
-11.2581273171 -36.7125941512 -640.0
-11.2581273171 -36.7125941512 -641.0
-11.2581273171 -36.7125941512 -642.0
-11.2581273171 -36.7125941512 -643.0
-11.551307716 -37.6686512906 -644.0
-11.2581273171 -36.7125941512 -645.0
-11.2581273171 -36.7125941512 -646.0
-11.2581273171 -36.7125941512 -647.0
-11.2581273171 -36.7125941512 -648.0
-11.551307716 -37.6686512906 -649.0
-11.551307716 -37.6686512906 -650.0
-11.2581273171 -36.7125941512 -651.0
-11.2581273171 -36.7125941512 -652.0
-11.551307716 -37.6686512906 -653.0
-11.551307716 -37.6686512906 -654.0
-11.8444881149 -38.6247084299 -655.0
-11.8444881149 -38.6247084299 -656.0
-11.551307716 -37.6686512906 -657.0
-11.551307716 -37.6686512906 -658.0
-11.551307716 -37.6686512906 -659.0
-11.8444881149 -38.6247084299 -660.0
-11.8444881149 -38.6247084299 -661.0
-11.8444881149 -38.6247084299 -662.0
-11.8444881149 -38.6247084299 -663.0
-11.551307716 -37.6686512906 -664.0
-11.551307716 -37.6686512906 -665.0
-11.551307716 -37.6686512906 -666.0
-11.551307716 -37.6686512906 -667.0
-11.551307716 -37.6686512906 -668.0
-11.551307716 -37.6686512906 -669.0
-11.551307716 -37.6686512906 -670.0
-11.551307716 -37.6686512906 -671.0
-11.551307716 -37.6686512906 -672.0
-11.551307716 -37.6686512906 -673.0
-11.551307716 -37.6686512906 -674.0
-11.551307716 -37.6686512906 -675.0
-11.551307716 -37.6686512906 -676.0
-11.551307716 -37.6686512906 -677.0
-11.551307716 -37.6686512906 -678.0
-11.2581273171 -36.7125941512 -679.0
-11.2581273171 -36.7125941512 -680.0
-11.2581273171 -36.7125941512 -681.0
-11.2581273171 -36.7125941512 -682.0
-11.2581273171 -36.7125941512 -683.0
-11.2581273171 -36.7125941512 -684.0
-11.2581273171 -36.7125941512 -685.0
-11.2581273171 -36.7125941512 -686.0
-11.2581273171 -36.7125941512 -687.0
-10.9649469183 -35.7565370119 -688.0
-10.9649469183 -35.7565370119 -689.0
-10.9649469183 -35.7565370119 -690.0
-10.9649469183 -35.7565370119 -691.0
-10.6717665194 -34.8004798725 -692.0
-10.3785861205 -33.8444227331 -693.0
-10.6717665194 -34.8004798725 -694.0
-10.6717665194 -34.8004798725 -695.0
-10.3785861205 -33.8444227331 -696.0
-10.3785861205 -33.8444227331 -697.0
-10.3785861205 -33.8444227331 -698.0
-10.3785861205 -33.8444227331 -699.0
-10.0854057216 -32.8883655938 -700.0
-10.0854057216 -32.8883655938 -701.0
-9.79222532272 -31.9323084544 -702.0
-9.79222532272 -31.9323084544 -703.0
-9.79222532272 -31.9323084544 -704.0
-9.49904492383 -30.9762513151 -705.0
-9.79222532272 -31.9323084544 -706.0
-9.20586452495 -30.0201941757 -707.0
-8.91268412606 -29.0641370364 -708.0
-8.91268412606 -29.0641370364 -709.0
-8.91268412606 -29.0641370364 -710.0
-8.61950372718 -28.108079897 -711.0
-8.61950372718 -28.108079897 -712.0
-8.61950372718 -28.108079897 -713.0
-8.3263233283 -27.1520227577 -714.0
-8.3263233283 -27.1520227577 -715.0
-8.03314292941 -26.1959656183 -716.0
-8.03314292941 -26.1959656183 -717.0
-7.73996253053 -25.239908479 -718.0
-7.44678213165 -24.2838513396 -719.0
-7.15360173276 -23.3277942002 -720.0
-6.86042133388 -22.3717370609 -721.0
-6.56724093499 -21.4156799215 -722.0
-6.56724093499 -21.4156799215 -723.0
-6.56724093499 -21.4156799215 -724.0
-5.98088013723 -19.5035656428 -725.0
-5.68769973834 -18.5475085035 -726.0
-5.68769973834 -18.5475085035 -727.0
-3.04907614839 -9.94299424929 -731.0
-2.75589574951 -8.98693710993 -732.0
-2.75589574951 -8.98693710993 -733.0
-2.46271535062 -8.03087997058 -734.0
-2.75589574951 -8.98693710993 -735.0
0.191716586646 0.568546172623 -576.0
-0.127811057764 -0.379030781749 -577.0
-0.447338702174 -1.32660773612 -578.0
-0.766866346584 -2.27418469049 -579.0
-1.08639399099 -3.22176164487 -580.0
-1.72544927981 -5.11691555361 -581.0
-2.36450456864 -7.01206946236 -582.0
-2.68403221305 -7.95964641673 -583.0
-3.32308750187 -9.85480032547 -584.0
-3.64261514628 -10.8023772798 -585.0
-4.2816704351 -12.6975311886 -586.0
-4.60119807951 -13.645108143 -587.0
-4.92072572392 -14.5926850973 -588.0
-5.24025336833 -15.5402620517 -589.0
-5.55978101274 -16.4878390061 -590.0
-5.55978101274 -16.4878390061 -591.0
-5.87930865715 -17.4354159605 -592.0
-6.19883630156 -18.3829929148 -593.0
-6.19883630156 -18.3829929148 -594.0
-6.51836394597 -19.3305698692 -595.0
-6.83789159038 -20.2781468236 -596.0
-7.15741923479 -21.2257237779 -597.0
-7.4769468792 -22.1733007323 -598.0
-7.4769468792 -22.1733007323 -599.0
-7.4769468792 -22.1733007323 -600.0
-7.79647452361 -23.1208776867 -601.0
-8.11600216802 -24.0684546411 -602.0
-8.43552981243 -25.0160315954 -603.0
-8.75505745684 -25.9636085498 -604.0
-8.43552981243 -25.0160315954 -605.0
-8.75505745684 -25.9636085498 -606.0
-8.75505745684 -25.9636085498 -607.0
-9.07458510125 -26.9111855042 -608.0
-9.39411274566 -27.8587624585 -609.0
-9.39411274566 -27.8587624585 -610.0
-9.39411274566 -27.8587624585 -611.0
-9.39411274566 -27.8587624585 -612.0
-9.71364039007 -28.8063394129 -613.0
-10.0331680345 -29.7539163673 -614.0
-10.0331680345 -29.7539163673 -615.0
-10.0331680345 -29.7539163673 -616.0
-10.3526956789 -30.7014933217 -617.0
-10.3526956789 -30.7014933217 -618.0
-10.3526956789 -30.7014933217 -619.0
-10.6722233233 -31.649070276 -620.0
-10.9917509677 -32.5966472304 -621.0
-10.9917509677 -32.5966472304 -622.0
-10.6722233233 -31.649070276 -623.0
-10.9917509677 -32.5966472304 -624.0
-11.3112786121 -33.5442241848 -625.0
-11.3112786121 -33.5442241848 -626.0
-11.3112786121 -33.5442241848 -627.0
-10.9917509677 -32.5966472304 -628.0
-10.9917509677 -32.5966472304 -629.0
-10.9917509677 -32.5966472304 -630.0
-11.6308062565 -34.4918011392 -631.0
-11.6308062565 -34.4918011392 -632.0
-11.6308062565 -34.4918011392 -633.0
-11.6308062565 -34.4918011392 -634.0
-11.6308062565 -34.4918011392 -635.0
-11.9503339009 -35.4393780935 -636.0
-11.9503339009 -35.4393780935 -637.0
-11.9503339009 -35.4393780935 -638.0
-11.9503339009 -35.4393780935 -639.0
-12.2698615453 -36.3869550479 -640.0
-12.2698615453 -36.3869550479 -641.0
-12.2698615453 -36.3869550479 -642.0
-12.2698615453 -36.3869550479 -643.0
-12.2698615453 -36.3869550479 -644.0
-12.2698615453 -36.3869550479 -645.0
-12.2698615453 -36.3869550479 -646.0
-12.2698615453 -36.3869550479 -647.0
-12.2698615453 -36.3869550479 -648.0
-12.2698615453 -36.3869550479 -649.0
-12.2698615453 -36.3869550479 -650.0
-12.2698615453 -36.3869550479 -651.0
-12.2698615453 -36.3869550479 -652.0
-12.2698615453 -36.3869550479 -653.0
-12.2698615453 -36.3869550479 -654.0
-12.5893891898 -37.3345320023 -655.0
-12.5893891898 -37.3345320023 -656.0
-12.5893891898 -37.3345320023 -657.0
-12.5893891898 -37.3345320023 -658.0
-12.5893891898 -37.3345320023 -659.0
-12.5893891898 -37.3345320023 -660.0
-12.5893891898 -37.3345320023 -661.0
-12.9089168342 -38.2821089566 -662.0
-12.5893891898 -37.3345320023 -663.0
-12.5893891898 -37.3345320023 -664.0
-12.5893891898 -37.3345320023 -665.0
-12.5893891898 -37.3345320023 -666.0
-12.5893891898 -37.3345320023 -667.0
-12.5893891898 -37.3345320023 -668.0
-12.5893891898 -37.3345320023 -669.0
-12.5893891898 -37.3345320023 -670.0
-12.5893891898 -37.3345320023 -671.0
-12.5893891898 -37.3345320023 -672.0
-12.5893891898 -37.3345320023 -673.0
-12.5893891898 -37.3345320023 -674.0
-12.5893891898 -37.3345320023 -675.0
-12.5893891898 -37.3345320023 -676.0
-12.2698615453 -36.3869550479 -677.0
-12.2698615453 -36.3869550479 -678.0
-12.2698615453 -36.3869550479 -679.0
-12.5893891898 -37.3345320023 -680.0
-12.2698615453 -36.3869550479 -681.0
-11.9503339009 -35.4393780935 -682.0
-11.9503339009 -35.4393780935 -683.0
-12.2698615453 -36.3869550479 -684.0
-12.2698615453 -36.3869550479 -685.0
-11.9503339009 -35.4393780935 -686.0
-12.2698615453 -36.3869550479 -687.0
-11.9503339009 -35.4393780935 -688.0
-11.9503339009 -35.4393780935 -689.0
-11.6308062565 -34.4918011392 -690.0
-11.6308062565 -34.4918011392 -691.0
-11.6308062565 -34.4918011392 -692.0
-11.6308062565 -34.4918011392 -693.0
-11.3112786121 -33.5442241848 -694.0
-11.3112786121 -33.5442241848 -695.0
-11.3112786121 -33.5442241848 -696.0
-11.3112786121 -33.5442241848 -697.0
-10.9917509677 -32.5966472304 -698.0
-10.9917509677 -32.5966472304 -699.0
-10.9917509677 -32.5966472304 -700.0
-10.6722233233 -31.649070276 -701.0
-10.6722233233 -31.649070276 -702.0
-10.3526956789 -30.7014933217 -703.0
-10.3526956789 -30.7014933217 -704.0
-10.0331680345 -29.7539163673 -705.0
-10.0331680345 -29.7539163673 -706.0
-10.0331680345 -29.7539163673 -707.0
-9.71364039007 -28.8063394129 -708.0
-9.71364039007 -28.8063394129 -709.0
-9.71364039007 -28.8063394129 -710.0
-9.39411274566 -27.8587624585 -711.0
-9.39411274566 -27.8587624585 -712.0
-9.07458510125 -26.9111855042 -713.0
-9.07458510125 -26.9111855042 -714.0
-8.75505745684 -25.9636085498 -715.0
-8.75505745684 -25.9636085498 -716.0
-8.43552981243 -25.0160315954 -717.0
-8.11600216802 -24.0684546411 -718.0
-8.11600216802 -24.0684546411 -719.0
-7.79647452361 -23.1208776867 -720.0
-7.4769468792 -22.1733007323 -721.0
-7.15741923479 -21.2257237779 -722.0
-7.15741923479 -21.2257237779 -723.0
-6.83789159038 -20.2781468236 -724.0
-6.51836394597 -19.3305698692 -725.0
-6.51836394597 -19.3305698692 -726.0
-6.19883630156 -18.3829929148 -727.0
-3.96214279069 -11.7499542342 -730.0
-3.64261514628 -10.8023772798 -731.0
-3.32308750187 -9.85480032547 -732.0
-3.00355985746 -8.9072233711 -733.0
-3.00355985746 -8.9072233711 -734.0
70.7159190167 191.990673726 -322.0
70.7159190167 191.990673726 -323.0
70.7159190167 191.990673726 -324.0
71.0615491194 192.929044565 -325.0
71.0615491194 192.929044565 -326.0
0.553008164354 1.50139334292 -576.0
-0.138252041088 -0.375348335729 -577.0
-0.138252041088 -0.375348335729 -578.0
-0.82951224653 -2.25209001438 -579.0
-1.17514234925 -3.1904608537 -580.0
-1.52077245197 -4.12883169302 -581.0
-2.55766276014 -6.943944211 -582.0
-2.90329286286 -7.88231505032 -583.0
-3.24892296558 -8.82068588964 -584.0
-3.94018317102 -10.6974275683 -585.0
-4.28581327374 -11.6357984076 -586.0
-4.97707347918 -13.5125400863 -587.0
-5.3227035819 -14.4509109256 -588.0
-5.66833368462 -15.3892817649 -589.0
-5.66833368462 -15.3892817649 -590.0
-5.66833368462 -15.3892817649 -591.0
-6.01396378735 -16.3276526042 -592.0
-6.70522399279 -18.2043942829 -593.0
-6.70522399279 -18.2043942829 -594.0
-7.05085409551 -19.1427651222 -595.0
-7.39648419823 -20.0811359615 -596.0
-7.74211430095 -21.0195068009 -597.0
-7.74211430095 -21.0195068009 -598.0
-8.43337450639 -22.8962484795 -599.0
-8.43337450639 -22.8962484795 -600.0
-8.43337450639 -22.8962484795 -601.0
-8.43337450639 -22.8962484795 -602.0
-8.77900460911 -23.8346193188 -603.0
-9.47026481456 -25.7113609975 -604.0
-9.12463471183 -24.7729901581 -605.0
-9.12463471183 -24.7729901581 -606.0
-9.47026481456 -25.7113609975 -607.0
-9.47026481456 -25.7113609975 -608.0
-9.81589491728 -26.6497318368 -609.0
-9.81589491728 -26.6497318368 -610.0
-10.16152502 -27.5881026761 -611.0
-10.5071551227 -28.5264735154 -612.0
-10.5071551227 -28.5264735154 -613.0
-10.5071551227 -28.5264735154 -614.0
-10.5071551227 -28.5264735154 -615.0
-10.8527852254 -29.4648443548 -616.0
-10.8527852254 -29.4648443548 -617.0
-10.8527852254 -29.4648443548 -618.0
-11.1984153282 -30.4032151941 -619.0
-11.1984153282 -30.4032151941 -620.0
-11.5440454309 -31.3415860334 -621.0
-11.8896755336 -32.2799568727 -622.0
-11.5440454309 -31.3415860334 -623.0
-11.8896755336 -32.2799568727 -624.0
-12.2353056363 -33.2183277121 -625.0
-11.8896755336 -32.2799568727 -626.0
-11.8896755336 -32.2799568727 -627.0
-11.8896755336 -32.2799568727 -628.0
-12.2353056363 -33.2183277121 -629.0
-12.2353056363 -33.2183277121 -630.0
-12.2353056363 -33.2183277121 -631.0
-12.2353056363 -33.2183277121 -632.0
-12.580935739 -34.1566985514 -633.0
-12.580935739 -34.1566985514 -634.0
-12.580935739 -34.1566985514 -635.0
-12.580935739 -34.1566985514 -636.0
-12.580935739 -34.1566985514 -637.0
-12.9265658418 -35.0950693907 -638.0
-12.9265658418 -35.0950693907 -639.0
-12.9265658418 -35.0950693907 -640.0
-12.9265658418 -35.0950693907 -641.0
-12.9265658418 -35.0950693907 -642.0
-12.9265658418 -35.0950693907 -643.0
-12.9265658418 -35.0950693907 -644.0
-13.2721959445 -36.03344023 -645.0
-13.2721959445 -36.03344023 -646.0
-13.2721959445 -36.03344023 -647.0
-13.2721959445 -36.03344023 -648.0
-13.2721959445 -36.03344023 -649.0
-13.2721959445 -36.03344023 -650.0
-13.2721959445 -36.03344023 -651.0
-13.2721959445 -36.03344023 -652.0
-13.2721959445 -36.03344023 -653.0
-13.2721959445 -36.03344023 -654.0
-13.6178260472 -36.9718110694 -655.0
-13.2721959445 -36.03344023 -656.0
-13.2721959445 -36.03344023 -657.0
-13.2721959445 -36.03344023 -658.0
-13.6178260472 -36.9718110694 -659.0
-13.6178260472 -36.9718110694 -660.0
-13.6178260472 -36.9718110694 -661.0
-13.6178260472 -36.9718110694 -662.0
-13.6178260472 -36.9718110694 -663.0
-13.2721959445 -36.03344023 -664.0
-13.2721959445 -36.03344023 -665.0
-13.6178260472 -36.9718110694 -666.0
-13.6178260472 -36.9718110694 -667.0
-13.2721959445 -36.03344023 -668.0
-13.2721959445 -36.03344023 -669.0
-13.2721959445 -36.03344023 -670.0
-13.6178260472 -36.9718110694 -671.0
-13.6178260472 -36.9718110694 -672.0
-13.6178260472 -36.9718110694 -673.0
-13.6178260472 -36.9718110694 -674.0
-13.6178260472 -36.9718110694 -675.0
-13.2721959445 -36.03344023 -676.0
-13.2721959445 -36.03344023 -677.0
-13.2721959445 -36.03344023 -678.0
-13.2721959445 -36.03344023 -679.0
