ply
format ascii 1.0
element vertex 1302
property float x
property float y
property float z
element face 0
element edge 0
end_header
-3.98537578895 -30.1376306272 -593.0
-3.98537578895 -30.1376306272 -594.0
-3.98537578895 -30.1376306272 -595.0
-3.98537578895 -30.1376306272 -596.0
-3.98537578895 -30.1376306272 -597.0
-4.11647367675 -31.1290000557 -598.0
-4.11647367675 -31.1290000557 -599.0
-3.98537578895 -30.1376306272 -600.0
-4.11647367675 -31.1290000557 -601.0
-4.11647367675 -31.1290000557 -602.0
-4.11647367675 -31.1290000557 -603.0
-4.11647367675 -31.1290000557 -604.0
-4.11647367675 -31.1290000557 -605.0
-4.11647367675 -31.1290000557 -606.0
-4.24757156454 -32.1203694842 -607.0
-4.11647367675 -31.1290000557 -608.0
-4.11647367675 -31.1290000557 -609.0
-4.24757156454 -32.1203694842 -610.0
-4.11647367675 -31.1290000557 -611.0
-4.11647367675 -31.1290000557 -612.0
-4.11647367675 -31.1290000557 -613.0
-4.24757156454 -32.1203694842 -614.0
-4.24757156454 -32.1203694842 -615.0
-4.24757156454 -32.1203694842 -618.0
-3.39156852417 -21.1295353225 -560.0
-3.39156852417 -21.1295353225 -561.0
-3.39156852417 -21.1295353225 -562.0
-3.39156852417 -21.1295353225 -563.0
-3.39156852417 -21.1295353225 -564.0
-3.39156852417 -21.1295353225 -565.0
-3.55005303465 -22.1168967862 -566.0
-3.55005303465 -22.1168967862 -567.0
-3.70853754513 -23.1042582499 -568.0
-3.70853754513 -23.1042582499 -569.0
-3.8670220556 -24.0916197135 -570.0
-3.8670220556 -24.0916197135 -571.0
-3.8670220556 -24.0916197135 -572.0
-3.8670220556 -24.0916197135 -573.0
-3.8670220556 -24.0916197135 -574.0
-4.02550656608 -25.0789811772 -575.0
-4.02550656608 -25.0789811772 -576.0
-4.02550656608 -25.0789811772 -577.0
-4.18399107655 -26.0663426409 -578.0
-4.18399107655 -26.0663426409 -579.0
-4.18399107655 -26.0663426409 -580.0
-4.34247558703 -27.0537041045 -581.0
-4.34247558703 -27.0537041045 -582.0
-4.34247558703 -27.0537041045 -583.0
-4.34247558703 -27.0537041045 -584.0
-4.5009600975 -28.0410655682 -585.0
-4.5009600975 -28.0410655682 -586.0
-4.5009600975 -28.0410655682 -587.0
-4.5009600975 -28.0410655682 -588.0
-4.65944460798 -29.0284270319 -589.0
-4.65944460798 -29.0284270319 -590.0
-4.65944460798 -29.0284270319 -591.0
-4.65944460798 -29.0284270319 -592.0
-4.65944460798 -29.0284270319 -593.0
-4.65944460798 -29.0284270319 -594.0
-4.81792911845 -30.0157884955 -595.0
-4.81792911845 -30.0157884955 -596.0
-4.81792911845 -30.0157884955 -597.0
-4.81792911845 -30.0157884955 -598.0
-4.81792911845 -30.0157884955 -599.0
-4.97641362893 -31.0031499592 -600.0
-4.97641362893 -31.0031499592 -601.0
-4.97641362893 -31.0031499592 -602.0
-4.97641362893 -31.0031499592 -603.0
-4.81792911845 -30.0157884955 -604.0
-4.81792911845 -30.0157884955 -605.0
-4.97641362893 -31.0031499592 -606.0
-4.97641362893 -31.0031499592 -607.0
-4.97641362893 -31.0031499592 -608.0
-4.97641362893 -31.0031499592 -609.0
-4.97641362893 -31.0031499592 -610.0
-4.97641362893 -31.0031499592 -611.0
-4.97641362893 -31.0031499592 -612.0
-4.97641362893 -31.0031499592 -613.0
-4.97641362893 -31.0031499592 -616.0
-4.97641362893 -31.0031499592 -617.0
-4.97641362893 -31.0031499592 -618.0
-4.97641362893 -31.0031499592 -619.0
-4.97641362893 -31.0031499592 -620.0
-4.97641362893 -31.0031499592 -621.0
-3.60354456058 -19.0623835498 -560.0
-3.60354456058 -19.0623835498 -561.0
-3.7892942802 -20.04498064 -562.0
-3.7892942802 -20.04498064 -563.0
-3.7892942802 -20.04498064 -564.0
-3.97504399982 -21.0275777302 -565.0
-4.16079371943 -22.0101748204 -566.0
-4.16079371943 -22.0101748204 -567.0
-4.16079371943 -22.0101748204 -568.0
-4.34654343905 -22.9927719106 -569.0
-4.34654343905 -22.9927719106 -570.0
-4.34654343905 -22.9927719106 -571.0
-4.53229315867 -23.9753690008 -572.0
-4.53229315867 -23.9753690008 -573.0
-4.53229315867 -23.9753690008 -574.0
-4.53229315867 -23.9753690008 -575.0
-4.9037925979 -25.9405631812 -576.0
-4.9037925979 -25.9405631812 -577.0
-4.9037925979 -25.9405631812 -578.0
-4.9037925979 -25.9405631812 -579.0
-5.08954231752 -26.9231602714 -580.0
-5.08954231752 -26.9231602714 -581.0
-5.08954231752 -26.9231602714 -582.0
-5.08954231752 -26.9231602714 -583.0
-5.27529203714 -27.9057573616 -584.0
-5.27529203714 -27.9057573616 -585.0
-5.27529203714 -27.9057573616 -586.0
-5.27529203714 -27.9057573616 -587.0
-5.27529203714 -27.9057573616 -588.0
-5.27529203714 -27.9057573616 -589.0
-5.46104175676 -28.8883544518 -590.0
-5.46104175676 -28.8883544518 -591.0
-5.46104175676 -28.8883544518 -592.0
-5.46104175676 -28.8883544518 -593.0
-5.46104175676 -28.8883544518 -594.0
-5.46104175676 -28.8883544518 -595.0
-5.46104175676 -28.8883544518 -596.0
-5.64679147638 -29.870951542 -597.0
-5.64679147638 -29.870951542 -598.0
-5.64679147638 -29.870951542 -599.0
-5.64679147638 -29.870951542 -600.0
-5.64679147638 -29.870951542 -601.0
-5.64679147638 -29.870951542 -602.0
-5.64679147638 -29.870951542 -603.0
-5.83254119599 -30.8535486322 -604.0
-5.83254119599 -30.8535486322 -605.0
-5.64679147638 -29.870951542 -606.0
-5.64679147638 -29.870951542 -607.0
-5.83254119599 -30.8535486322 -608.0
-5.83254119599 -30.8535486322 -609.0
-5.83254119599 -30.8535486322 -610.0
-5.83254119599 -30.8535486322 -611.0
-5.83254119599 -30.8535486322 -612.0
-5.83254119599 -30.8535486322 -613.0
-4.1297289753 -18.9553511862 -561.0
-4.34260160289 -19.9324311442 -562.0
-4.34260160289 -19.9324311442 -563.0
-4.55547423049 -20.9095111023 -564.0
-4.55547423049 -20.9095111023 -565.0
-4.55547423049 -20.9095111023 -566.0
-4.76834685808 -21.8865910603 -567.0
-4.98121948567 -22.8636710184 -568.0
-4.98121948567 -22.8636710184 -569.0
-4.98121948567 -22.8636710184 -570.0
-4.98121948567 -22.8636710184 -571.0
-4.98121948567 -22.8636710184 -572.0
-5.19409211327 -23.8407509764 -573.0
-5.19409211327 -23.8407509764 -574.0
-5.19409211327 -23.8407509764 -575.0
-5.40696474086 -24.8178309345 -576.0
-5.40696474086 -24.8178309345 -577.0
-5.40696474086 -24.8178309345 -578.0
-5.61983736845 -25.7949108925 -579.0
-5.61983736845 -25.7949108925 -580.0
-5.61983736845 -25.7949108925 -581.0
-5.61983736845 -25.7949108925 -582.0
-5.83270999604 -26.7719908506 -583.0
-5.83270999604 -26.7719908506 -584.0
-5.83270999604 -26.7719908506 -585.0
-6.04558262364 -27.7490708086 -586.0
-6.04558262364 -27.7490708086 -587.0
-6.04558262364 -27.7490708086 -588.0
-6.04558262364 -27.7490708086 -589.0
-6.04558262364 -27.7490708086 -590.0
-6.04558262364 -27.7490708086 -591.0
-6.04558262364 -27.7490708086 -592.0
-6.04558262364 -27.7490708086 -593.0
-6.25845525123 -28.7261507667 -594.0
-6.25845525123 -28.7261507667 -595.0
-6.25845525123 -28.7261507667 -596.0
-6.25845525123 -28.7261507667 -597.0
-6.25845525123 -28.7261507667 -598.0
-6.47132787882 -29.7032307247 -599.0
-6.47132787882 -29.7032307247 -600.0
-6.47132787882 -29.7032307247 -601.0
-6.47132787882 -29.7032307247 -602.0
-6.47132787882 -29.7032307247 -603.0
-6.47132787882 -29.7032307247 -604.0
-6.47132787882 -29.7032307247 -605.0
-6.47132787882 -29.7032307247 -606.0
-6.47132787882 -29.7032307247 -607.0
-6.47132787882 -29.7032307247 -608.0
-6.47132787882 -29.7032307247 -609.0
-6.68420050642 -30.6803106827 -610.0
-6.47132787882 -29.7032307247 -611.0
-4.6527496423 -18.8337973008 -561.0
-4.89258209809 -19.8046115946 -562.0
-4.89258209809 -19.8046115946 -563.0
-4.89258209809 -19.8046115946 -564.0
-5.13241455388 -20.7754258885 -565.0
-5.13241455388 -20.7754258885 -566.0
-5.13241455388 -20.7754258885 -567.0
-5.37224700966 -21.7462401823 -568.0
-5.37224700966 -21.7462401823 -569.0
-5.61207946545 -22.7170544762 -570.0
-5.61207946545 -22.7170544762 -571.0
-5.85191192124 -23.68786877 -572.0
-5.85191192124 -23.68786877 -573.0
-5.85191192124 -23.68786877 -574.0
-5.85191192124 -23.68786877 -575.0
-5.85191192124 -23.68786877 -576.0
-6.09174437703 -24.6586830639 -577.0
-6.09174437703 -24.6586830639 -578.0
-6.33157683282 -25.6294973577 -579.0
-6.33157683282 -25.6294973577 -580.0
-6.33157683282 -25.6294973577 -581.0
-6.33157683282 -25.6294973577 -582.0
-6.57140928861 -26.6003116516 -583.0
-6.57140928861 -26.6003116516 -584.0
-6.57140928861 -26.6003116516 -585.0
-6.57140928861 -26.6003116516 -586.0
-6.57140928861 -26.6003116516 -587.0
-6.8112417444 -27.5711259454 -588.0
-6.8112417444 -27.5711259454 -589.0
-6.8112417444 -27.5711259454 -590.0
-6.8112417444 -27.5711259454 -591.0
-6.8112417444 -27.5711259454 -592.0
-7.05107420018 -28.5419402393 -593.0
-7.05107420018 -28.5419402393 -594.0
-7.05107420018 -28.5419402393 -595.0
-7.05107420018 -28.5419402393 -596.0
-7.05107420018 -28.5419402393 -597.0
-7.05107420018 -28.5419402393 -598.0
-7.05107420018 -28.5419402393 -599.0
-7.05107420018 -28.5419402393 -600.0
-7.05107420018 -28.5419402393 -601.0
-7.05107420018 -28.5419402393 -602.0
-7.29090665597 -29.5127545331 -603.0
-7.29090665597 -29.5127545331 -604.0
-7.29090665597 -29.5127545331 -605.0
-7.29090665597 -29.5127545331 -606.0
-7.29090665597 -29.5127545331 -607.0
-7.29090665597 -29.5127545331 -608.0
-7.29090665597 -29.5127545331 -609.0
-7.29090665597 -29.5127545331 -610.0
-7.29090665597 -29.5127545331 -611.0
-7.29090665597 -29.5127545331 -612.0
-4.63898877916 -16.7702052196 -558.0
-4.63898877916 -16.7702052196 -559.0
-4.90559732968 -17.7340101173 -560.0
-4.90559732968 -17.7340101173 -561.0
-5.17220588021 -18.6978150149 -562.0
-5.43881443074 -19.6616199126 -563.0
-5.70542298126 -20.6254248103 -564.0
-5.70542298126 -20.6254248103 -565.0
-5.70542298126 -20.6254248103 -566.0
-5.70542298126 -20.6254248103 -567.0
-5.97203153179 -21.589229708 -568.0
-5.97203153179 -21.589229708 -569.0
-6.23864008231 -22.5530346056 -570.0
-6.23864008231 -22.5530346056 -571.0
-6.23864008231 -22.5530346056 -572.0
-6.23864008231 -22.5530346056 -573.0
-6.50524863284 -23.5168395033 -574.0
-6.50524863284 -23.5168395033 -575.0
-6.50524863284 -23.5168395033 -576.0
-6.50524863284 -23.5168395033 -577.0
-6.77185718337 -24.480644401 -578.0
-6.77185718337 -24.480644401 -579.0
-6.77185718337 -24.480644401 -580.0
-7.03846573389 -25.4444492987 -581.0
-7.03846573389 -25.4444492987 -582.0
-7.03846573389 -25.4444492987 -583.0
-7.30507428442 -26.4082541964 -584.0
-7.30507428442 -26.4082541964 -585.0
-7.30507428442 -26.4082541964 -586.0
-7.30507428442 -26.4082541964 -587.0
-7.30507428442 -26.4082541964 -588.0
-7.57168283495 -27.372059094 -589.0
-7.57168283495 -27.372059094 -590.0
-7.57168283495 -27.372059094 -591.0
-7.57168283495 -27.372059094 -592.0
-7.57168283495 -27.372059094 -593.0
-7.57168283495 -27.372059094 -594.0
-7.57168283495 -27.372059094 -595.0
-7.57168283495 -27.372059094 -596.0
-7.83829138547 -28.3358639917 -597.0
-7.83829138547 -28.3358639917 -598.0
-7.83829138547 -28.3358639917 -599.0
-7.83829138547 -28.3358639917 -600.0
-7.83829138547 -28.3358639917 -601.0
-7.83829138547 -28.3358639917 -602.0
-8.104899936 -29.2996688894 -603.0
-7.83829138547 -28.3358639917 -604.0
-7.83829138547 -28.3358639917 -605.0
-8.104899936 -29.2996688894 -606.0
-8.104899936 -29.2996688894 -607.0
-8.104899936 -29.2996688894 -608.0
-8.104899936 -29.2996688894 -609.0
-8.104899936 -29.2996688894 -610.0
-8.104899936 -29.2996688894 -611.0
-7.83829138547 -28.3358639917 -612.0
-8.104899936 -29.2996688894 -613.0
-5.39451933946 -17.5914513641 -559.0
-5.39451933946 -17.5914513641 -561.0
-5.68769973834 -18.5475085035 -562.0
-5.98088013723 -19.5035656428 -563.0
-5.98088013723 -19.5035656428 -564.0
-6.27406053611 -20.4596227822 -565.0
-6.27406053611 -20.4596227822 -566.0
-6.27406053611 -20.4596227822 -567.0
-6.27406053611 -20.4596227822 -568.0
-6.56724093499 -21.4156799215 -569.0
-6.56724093499 -21.4156799215 -570.0
-6.56724093499 -21.4156799215 -571.0
-6.86042133388 -22.3717370609 -572.0
-6.86042133388 -22.3717370609 -573.0
-6.86042133388 -22.3717370609 -574.0
-6.86042133388 -22.3717370609 -575.0
-7.15360173276 -23.3277942002 -576.0
-7.44678213165 -24.2838513396 -577.0
-7.44678213165 -24.2838513396 -578.0
-7.44678213165 -24.2838513396 -579.0
-7.44678213165 -24.2838513396 -580.0
-7.73996253053 -25.239908479 -581.0
-7.73996253053 -25.239908479 -582.0
-7.73996253053 -25.239908479 -583.0
-7.73996253053 -25.239908479 -584.0
-8.03314292941 -26.1959656183 -585.0
-8.03314292941 -26.1959656183 -586.0
-8.03314292941 -26.1959656183 -587.0
-8.03314292941 -26.1959656183 -588.0
-8.3263233283 -27.1520227577 -589.0
-8.3263233283 -27.1520227577 -590.0
-8.3263233283 -27.1520227577 -591.0
-8.3263233283 -27.1520227577 -592.0
-8.3263233283 -27.1520227577 -593.0
-8.3263233283 -27.1520227577 -594.0
-8.3263233283 -27.1520227577 -595.0
-8.3263233283 -27.1520227577 -596.0
-8.3263233283 -27.1520227577 -597.0
-8.3263233283 -27.1520227577 -598.0
-8.61950372718 -28.108079897 -599.0
-8.61950372718 -28.108079897 -600.0
-8.61950372718 -28.108079897 -601.0
-8.61950372718 -28.108079897 -602.0
-8.61950372718 -28.108079897 -603.0
-8.91268412606 -29.0641370364 -604.0
-8.91268412606 -29.0641370364 -605.0
-8.91268412606 -29.0641370364 -606.0
-8.91268412606 -29.0641370364 -607.0
-8.61950372718 -28.108079897 -608.0
-8.91268412606 -29.0641370364 -609.0
-8.91268412606 -29.0641370364 -610.0
-8.91268412606 -29.0641370364 -611.0
-8.91268412606 -29.0641370364 -612.0
-8.91268412606 -29.0641370364 -613.0
-8.91268412606 -29.0641370364 -617.0
-8.91268412606 -29.0641370364 -618.0
-8.91268412606 -29.0641370364 -619.0
-5.55978101274 -16.4878390061 -559.0
-5.55978101274 -16.4878390061 -560.0
-5.87930865715 -17.4354159605 -561.0
-5.87930865715 -17.4354159605 -562.0
-5.87930865715 -17.4354159605 -563.0
-6.19883630156 -18.3829929148 -564.0
-6.51836394597 -19.3305698692 -565.0
-6.51836394597 -19.3305698692 -566.0
-6.51836394597 -19.3305698692 -567.0
-6.51836394597 -19.3305698692 -568.0
-6.83789159038 -20.2781468236 -569.0
-7.15741923479 -21.2257237779 -570.0
-7.15741923479 -21.2257237779 -571.0
-7.15741923479 -21.2257237779 -572.0
-7.4769468792 -22.1733007323 -573.0
-7.4769468792 -22.1733007323 -574.0
-7.4769468792 -22.1733007323 -575.0
-7.79647452361 -23.1208776867 -576.0
-7.79647452361 -23.1208776867 -577.0
-7.79647452361 -23.1208776867 -578.0
-7.79647452361 -23.1208776867 -579.0
-8.11600216802 -24.0684546411 -580.0
-8.11600216802 -24.0684546411 -581.0
-8.11600216802 -24.0684546411 -582.0
-8.43552981243 -25.0160315954 -583.0
-8.43552981243 -25.0160315954 -584.0
-8.43552981243 -25.0160315954 -585.0
-8.43552981243 -25.0160315954 -586.0
-8.75505745684 -25.9636085498 -587.0
-8.75505745684 -25.9636085498 -588.0
-8.75505745684 -25.9636085498 -589.0
-8.75505745684 -25.9636085498 -590.0
-8.75505745684 -25.9636085498 -591.0
-8.75505745684 -25.9636085498 -592.0
-9.07458510125 -26.9111855042 -593.0
-9.07458510125 -26.9111855042 -594.0
-9.07458510125 -26.9111855042 -595.0
-9.07458510125 -26.9111855042 -596.0
-9.07458510125 -26.9111855042 -597.0
-9.07458510125 -26.9111855042 -598.0
-9.07458510125 -26.9111855042 -599.0
-9.39411274566 -27.8587624585 -600.0
-9.39411274566 -27.8587624585 -601.0
-9.39411274566 -27.8587624585 -602.0
-9.39411274566 -27.8587624585 -603.0
-9.39411274566 -27.8587624585 -604.0
-9.39411274566 -27.8587624585 -605.0
-9.39411274566 -27.8587624585 -606.0
-9.39411274566 -27.8587624585 -607.0
-9.39411274566 -27.8587624585 -608.0
-9.39411274566 -27.8587624585 -609.0
-9.39411274566 -27.8587624585 -610.0
-9.71364039007 -28.8063394129 -611.0
-9.39411274566 -27.8587624585 -612.0
-9.39411274566 -27.8587624585 -613.0
-5.66833368462 -15.3892817649 -558.0
-6.01396378735 -16.3276526042 -559.0
-6.01396378735 -16.3276526042 -560.0
-6.35959389007 -17.2660234436 -561.0
-6.35959389007 -17.2660234436 -562.0
-6.70522399279 -18.2043942829 -563.0
-6.70522399279 -18.2043942829 -564.0
-7.05085409551 -19.1427651222 -565.0
-7.05085409551 -19.1427651222 -566.0
-7.05085409551 -19.1427651222 -567.0
-7.39648419823 -20.0811359615 -568.0
-7.39648419823 -20.0811359615 -569.0
-7.74211430095 -21.0195068009 -570.0
-7.74211430095 -21.0195068009 -571.0
-7.74211430095 -21.0195068009 -572.0
-8.08774440367 -21.9578776402 -573.0
-8.08774440367 -21.9578776402 -574.0
-8.08774440367 -21.9578776402 -575.0
-8.08774440367 -21.9578776402 -576.0
-8.43337450639 -22.8962484795 -577.0
-8.43337450639 -22.8962484795 -578.0
-8.43337450639 -22.8962484795 -579.0
-8.77900460911 -23.8346193188 -580.0
-8.77900460911 -23.8346193188 -581.0
-8.77900460911 -23.8346193188 -582.0
-8.77900460911 -23.8346193188 -583.0
-9.12463471183 -24.7729901581 -584.0
-9.12463471183 -24.7729901581 -585.0
-9.12463471183 -24.7729901581 -586.0
-9.12463471183 -24.7729901581 -587.0
-9.47026481456 -25.7113609975 -588.0
-9.47026481456 -25.7113609975 -589.0
-9.81589491728 -26.6497318368 -590.0
-9.47026481456 -25.7113609975 -591.0
-9.81589491728 -26.6497318368 -592.0
-9.81589491728 -26.6497318368 -593.0
-9.81589491728 -26.6497318368 -594.0
-9.81589491728 -26.6497318368 -595.0
-9.81589491728 -26.6497318368 -596.0
-9.81589491728 -26.6497318368 -597.0
-9.81589491728 -26.6497318368 -598.0
-9.81589491728 -26.6497318368 -599.0
-9.81589491728 -26.6497318368 -600.0
-9.81589491728 -26.6497318368 -601.0
-10.16152502 -27.5881026761 -602.0
-10.16152502 -27.5881026761 -603.0
-10.16152502 -27.5881026761 -604.0
-10.16152502 -27.5881026761 -605.0
-10.16152502 -27.5881026761 -606.0
-10.16152502 -27.5881026761 -607.0
-10.16152502 -27.5881026761 -608.0
-10.16152502 -27.5881026761 -609.0
-10.16152502 -27.5881026761 -610.0
-10.16152502 -27.5881026761 -611.0
-10.16152502 -27.5881026761 -612.0
-10.16152502 -27.5881026761 -613.0
-10.16152502 -27.5881026761 -614.0
-10.16152502 -27.5881026761 -615.0
-6.46353931912 -16.1549577366 -560.0
-6.46353931912 -16.1549577366 -561.0
-6.83500709608 -17.0834035835 -562.0
-7.20647487304 -18.0118494304 -563.0
-7.20647487304 -18.0118494304 -564.0
-7.57794265 -18.9402952774 -565.0
-7.57794265 -18.9402952774 -566.0
-7.94941042696 -19.8687411243 -567.0
-7.94941042696 -19.8687411243 -568.0
-7.94941042696 -19.8687411243 -569.0
-8.32087820392 -20.7971869712 -570.0
-8.32087820392 -20.7971869712 -571.0
-8.32087820392 -20.7971869712 -572.0
-8.32087820392 -20.7971869712 -573.0
-8.69234598088 -21.7256328181 -574.0
-8.69234598088 -21.7256328181 -575.0
-8.69234598088 -21.7256328181 -576.0
-8.69234598088 -21.7256328181 -577.0
-8.69234598088 -21.7256328181 -578.0
-9.06381375784 -22.6540786651 -579.0
-9.06381375784 -22.6540786651 -580.0
-9.43528153481 -23.582524512 -581.0
-9.43528153481 -23.582524512 -582.0
-9.43528153481 -23.582524512 -583.0
-9.43528153481 -23.582524512 -584.0
-9.43528153481 -23.582524512 -585.0
-9.80674931177 -24.5109703589 -586.0
-9.80674931177 -24.5109703589 -587.0
-9.80674931177 -24.5109703589 -588.0
-10.1782170887 -25.4394162059 -589.0
-10.1782170887 -25.4394162059 -590.0
-10.1782170887 -25.4394162059 -591.0
-10.1782170887 -25.4394162059 -592.0
-10.1782170887 -25.4394162059 -593.0
-10.1782170887 -25.4394162059 -594.0
-10.1782170887 -25.4394162059 -595.0
-10.5496848657 -26.3678620528 -596.0
-10.5496848657 -26.3678620528 -597.0
-10.5496848657 -26.3678620528 -598.0
-10.5496848657 -26.3678620528 -599.0
-10.5496848657 -26.3678620528 -600.0
-10.5496848657 -26.3678620528 -601.0
-10.5496848657 -26.3678620528 -602.0
-10.5496848657 -26.3678620528 -603.0
-10.5496848657 -26.3678620528 -604.0
-10.5496848657 -26.3678620528 -605.0
-10.5496848657 -26.3678620528 -606.0
-10.9211526426 -27.2963078997 -607.0
-10.9211526426 -27.2963078997 -608.0
-10.9211526426 -27.2963078997 -609.0
-10.9211526426 -27.2963078997 -610.0
-10.9211526426 -27.2963078997 -611.0
-10.9211526426 -27.2963078997 -612.0
-10.9211526426 -27.2963078997 -613.0
-10.9211526426 -27.2963078997 -620.0
-10.9211526426 -27.2963078997 -621.0
-6.51114231922 -15.0520771224 -559.0
-6.90816319234 -15.969886703 -560.0
-6.90816319234 -15.969886703 -561.0
-7.30518406546 -16.8876962837 -562.0
-7.30518406546 -16.8876962837 -563.0
-7.70220493859 -17.8055058643 -564.0
-8.09922581171 -18.7233154449 -565.0
-8.09922581171 -18.7233154449 -566.0
-8.09922581171 -18.7233154449 -567.0
-8.09922581171 -18.7233154449 -568.0
-8.49624668483 -19.6411250256 -569.0
-8.49624668483 -19.6411250256 -570.0
-8.49624668483 -19.6411250256 -571.0
-8.89326755796 -20.5589346062 -572.0
-8.89326755796 -20.5589346062 -573.0
-9.29028843108 -21.4767441868 -574.0
-9.29028843108 -21.4767441868 -575.0
-9.29028843108 -21.4767441868 -576.0
-9.29028843108 -21.4767441868 -577.0
-9.29028843108 -21.4767441868 -578.0
-9.6873093042 -22.3945537675 -579.0
-9.6873093042 -22.3945537675 -580.0
-10.0843301773 -23.3123633481 -581.0
-10.0843301773 -23.3123633481 -582.0
-10.0843301773 -23.3123633481 -583.0
-10.0843301773 -23.3123633481 -584.0
-10.0843301773 -23.3123633481 -585.0
-10.4813510504 -24.2301729288 -586.0
-10.4813510504 -24.2301729288 -587.0
-10.4813510504 -24.2301729288 -588.0
-10.4813510504 -24.2301729288 -589.0
-10.4813510504 -24.2301729288 -590.0
-10.8783719236 -25.1479825094 -591.0
-10.8783719236 -25.1479825094 -592.0
-10.8783719236 -25.1479825094 -593.0
-10.8783719236 -25.1479825094 -594.0
-10.8783719236 -25.1479825094 -595.0
-10.8783719236 -25.1479825094 -596.0
-11.2753927967 -26.06579209 -597.0
-11.2753927967 -26.06579209 -598.0
-11.2753927967 -26.06579209 -599.0
-11.2753927967 -26.06579209 -600.0
-11.2753927967 -26.06579209 -601.0
-11.2753927967 -26.06579209 -602.0
-11.2753927967 -26.06579209 -603.0
-11.6724136698 -26.9836016707 -604.0
-11.6724136698 -26.9836016707 -605.0
-11.2753927967 -26.06579209 -606.0
-11.2753927967 -26.06579209 -607.0
-11.2753927967 -26.06579209 -608.0
-11.6724136698 -26.9836016707 -610.0
-11.6724136698 -26.9836016707 -611.0
-11.6724136698 -26.9836016707 -612.0
-11.6724136698 -26.9836016707 -613.0
-11.6724136698 -26.9836016707 -614.0
-11.6724136698 -26.9836016707 -615.0
-11.6724136698 -26.9836016707 -616.0
-6.9252249695 -14.8661110961 -560.0
-7.34749478471 -15.7725812849 -561.0
-7.76976459993 -16.6790514737 -562.0
-7.76976459993 -16.6790514737 -563.0
-8.19203441514 -17.5855216625 -564.0
-8.19203441514 -17.5855216625 -565.0
-8.19203441514 -17.5855216625 -566.0
-8.61430423035 -18.4919918513 -567.0
-8.61430423035 -18.4919918513 -568.0
-8.61430423035 -18.4919918513 -569.0
-9.03657404557 -19.39846204 -570.0
-9.45884386078 -20.3049322288 -571.0
-9.45884386078 -20.3049322288 -572.0
-9.45884386078 -20.3049322288 -573.0
-9.88111367599 -21.2114024176 -574.0
-9.88111367599 -21.2114024176 -575.0
-9.88111367599 -21.2114024176 -576.0
-10.3033834912 -22.1178726064 -577.0
-10.3033834912 -22.1178726064 -578.0
-10.3033834912 -22.1178726064 -579.0
-10.3033834912 -22.1178726064 -580.0
-10.3033834912 -22.1178726064 -581.0
-10.7256533064 -23.0243427952 -582.0
-10.7256533064 -23.0243427952 -583.0
-10.7256533064 -23.0243427952 -584.0
-10.7256533064 -23.0243427952 -585.0
-10.7256533064 -23.0243427952 -586.0
-10.7256533064 -23.0243427952 -587.0
-10.7256533064 -23.0243427952 -588.0
-11.1479231216 -23.930812984 -589.0
-11.1479231216 -23.930812984 -590.0
-11.1479231216 -23.930812984 -591.0
-11.1479231216 -23.930812984 -592.0
-11.1479231216 -23.930812984 -593.0
-11.5701929368 -24.8372831728 -594.0
-11.5701929368 -24.8372831728 -595.0
-11.5701929368 -24.8372831728 -596.0
-11.5701929368 -24.8372831728 -597.0
-11.5701929368 -24.8372831728 -598.0
-11.5701929368 -24.8372831728 -599.0
-11.5701929368 -24.8372831728 -600.0
-11.9924627521 -25.7437533616 -601.0
-11.9924627521 -25.7437533616 -602.0
-11.9924627521 -25.7437533616 -603.0
-11.9924627521 -25.7437533616 -604.0
-11.9924627521 -25.7437533616 -605.0
-11.9924627521 -25.7437533616 -606.0
-11.9924627521 -25.7437533616 -607.0
-11.9924627521 -25.7437533616 -608.0
-11.9924627521 -25.7437533616 -609.0
-11.9924627521 -25.7437533616 -610.0
-11.9924627521 -25.7437533616 -611.0
-11.9924627521 -25.7437533616 -612.0
-11.9924627521 -25.7437533616 -613.0
-12.4147325673 -26.6502235503 -614.0
-11.9924627521 -25.7437533616 -615.0
-6.88680700782 -13.7743199192 -555.0
-6.43961174757 -12.8798835608 -556.0
-6.88680700782 -13.7743199192 -557.0
-7.33400226806 -14.6687562776 -558.0
-7.33400226806 -14.6687562776 -559.0
-7.33400226806 -14.6687562776 -560.0
-7.78119752831 -15.563192636 -561.0
-8.22839278856 -16.4576289944 -562.0
-8.22839278856 -16.4576289944 -563.0
-8.67558804881 -17.3520653528 -564.0
-8.67558804881 -17.3520653528 -565.0
-8.67558804881 -17.3520653528 -566.0
-9.12278330905 -18.2465017112 -567.0
-9.12278330905 -18.2465017112 -568.0
-9.12278330905 -18.2465017112 -569.0
-9.12278330905 -18.2465017112 -570.0
-9.5699785693 -19.1409380696 -571.0
-10.0171738296 -20.035374428 -572.0
-10.0171738296 -20.035374428 -573.0
-10.4643690898 -20.9298107864 -574.0
-10.4643690898 -20.9298107864 -575.0
-10.4643690898 -20.9298107864 -576.0
-10.91156435 -21.8242471447 -577.0
-10.91156435 -21.8242471447 -578.0
-10.91156435 -21.8242471447 -579.0
-10.91156435 -21.8242471447 -580.0
-10.91156435 -21.8242471447 -581.0
-11.3587596103 -22.7186835031 -582.0
-11.3587596103 -22.7186835031 -583.0
-11.3587596103 -22.7186835031 -584.0
-11.3587596103 -22.7186835031 -585.0
-11.3587596103 -22.7186835031 -586.0
-11.3587596103 -22.7186835031 -587.0
-11.8059548705 -23.6131198615 -588.0
-11.8059548705 -23.6131198615 -589.0
-11.8059548705 -23.6131198615 -590.0
-11.8059548705 -23.6131198615 -591.0
-11.8059548705 -23.6131198615 -592.0
-11.8059548705 -23.6131198615 -593.0
-11.8059548705 -23.6131198615 -594.0
-11.8059548705 -23.6131198615 -595.0
-12.2531501308 -24.5075562199 -596.0
-12.2531501308 -24.5075562199 -597.0
-12.2531501308 -24.5075562199 -598.0
-12.2531501308 -24.5075562199 -599.0
-12.2531501308 -24.5075562199 -600.0
-12.700345391 -25.4019925783 -601.0
-12.700345391 -25.4019925783 -602.0
-12.700345391 -25.4019925783 -603.0
-12.700345391 -25.4019925783 -604.0
-12.700345391 -25.4019925783 -605.0
-12.700345391 -25.4019925783 -606.0
-12.700345391 -25.4019925783 -607.0
-12.700345391 -25.4019925783 -608.0
-12.700345391 -25.4019925783 -609.0
-12.700345391 -25.4019925783 -610.0
-13.1475406513 -26.2964289367 -611.0
-13.1475406513 -26.2964289367 -612.0
-12.700345391 -25.4019925783 -613.0
-12.700345391 -25.4019925783 -614.0
-12.700345391 -25.4019925783 -618.0
-6.79360482821 -12.6967292417 -557.0
-7.26538294128 -13.5784465502 -559.0
-7.73716105435 -14.4601638587 -560.0
-8.20893916741 -15.3418811671 -561.0
-8.68071728048 -16.2235984756 -562.0
-8.68071728048 -16.2235984756 -563.0
-9.15249539355 -17.105315784 -564.0
-9.15249539355 -17.105315784 -565.0
-9.15249539355 -17.105315784 -566.0
-9.62427350662 -17.9870330925 -567.0
-9.62427350662 -17.9870330925 -568.0
-9.62427350662 -17.9870330925 -569.0
-9.62427350662 -17.9870330925 -570.0
-10.0960516197 -18.8687504009 -571.0
-10.0960516197 -18.8687504009 -572.0
-10.5678297328 -19.7504677094 -573.0
-10.5678297328 -19.7504677094 -574.0
-10.5678297328 -19.7504677094 -575.0
-10.5678297328 -19.7504677094 -576.0
-11.0396078458 -20.6321850178 -577.0
-11.0396078458 -20.6321850178 -578.0
-11.0396078458 -20.6321850178 -579.0
-11.0396078458 -20.6321850178 -580.0
-11.5113859589 -21.5139023263 -581.0
-11.5113859589 -21.5139023263 -582.0
-11.5113859589 -21.5139023263 -583.0
-11.5113859589 -21.5139023263 -584.0
-11.983164072 -22.3956196347 -585.0
-11.983164072 -22.3956196347 -586.0
-11.983164072 -22.3956196347 -587.0
-11.983164072 -22.3956196347 -588.0
-11.983164072 -22.3956196347 -589.0
-11.983164072 -22.3956196347 -590.0
-11.983164072 -22.3956196347 -591.0
-12.454942185 -23.2773369432 -592.0
-12.454942185 -23.2773369432 -593.0
-12.454942185 -23.2773369432 -594.0
-12.454942185 -23.2773369432 -595.0
-12.9267202981 -24.1590542517 -596.0
-12.9267202981 -24.1590542517 -597.0
-12.9267202981 -24.1590542517 -598.0
-12.9267202981 -24.1590542517 -599.0
-12.9267202981 -24.1590542517 -600.0
-12.9267202981 -24.1590542517 -601.0
-13.3984984112 -25.0407715601 -602.0
-13.3984984112 -25.0407715601 -603.0
-13.3984984112 -25.0407715601 -604.0
-12.9267202981 -24.1590542517 -605.0
-12.9267202981 -24.1590542517 -606.0
-12.9267202981 -24.1590542517 -607.0
-13.3984984112 -25.0407715601 -608.0
-13.3984984112 -25.0407715601 -609.0
-13.3984984112 -25.0407715601 -610.0
-13.3984984112 -25.0407715601 -613.0
-13.3984984112 -25.0407715601 -614.0
-13.3984984112 -25.0407715601 -615.0
-13.3984984112 -25.0407715601 -616.0
-7.63839293109 -13.3721708571 -559.0
-8.13439247207 -14.24049364 -560.0
-8.63039201305 -15.1088164229 -561.0
-9.12639155403 -15.9771392058 -562.0
-9.12639155403 -15.9771392058 -563.0
-9.12639155403 -15.9771392058 -564.0
-9.12639155403 -15.9771392058 -565.0
-9.12639155403 -15.9771392058 -566.0
-9.62239109501 -16.8454619888 -567.0
-10.614390177 -18.5821075546 -568.0
-10.614390177 -18.5821075546 -569.0
-10.614390177 -18.5821075546 -570.0
-10.614390177 -18.5821075546 -571.0
-11.110389718 -19.4504303375 -572.0
-11.110389718 -19.4504303375 -573.0
-11.110389718 -19.4504303375 -574.0
-11.110389718 -19.4504303375 -575.0
-11.110389718 -19.4504303375 -576.0
-11.6063892589 -20.3187531205 -577.0
-11.6063892589 -20.3187531205 -578.0
-11.6063892589 -20.3187531205 -579.0
-11.6063892589 -20.3187531205 -580.0
-12.1023887999 -21.1870759034 -581.0
-12.1023887999 -21.1870759034 -582.0
-12.1023887999 -21.1870759034 -583.0
-12.5983883409 -22.0553986863 -584.0
-12.5983883409 -22.0553986863 -585.0
-12.5983883409 -22.0553986863 -586.0
-12.5983883409 -22.0553986863 -587.0
-12.5983883409 -22.0553986863 -588.0
-12.5983883409 -22.0553986863 -589.0
-13.0943878819 -22.9237214692 -590.0
-13.0943878819 -22.9237214692 -591.0
-13.0943878819 -22.9237214692 -592.0
-13.0943878819 -22.9237214692 -593.0
-13.0943878819 -22.9237214692 -594.0
-13.0943878819 -22.9237214692 -595.0
-13.0943878819 -22.9237214692 -596.0
-13.5903874229 -23.7920442522 -597.0
-13.5903874229 -23.7920442522 -598.0
-13.5903874229 -23.7920442522 -599.0
-13.5903874229 -23.7920442522 -600.0
-13.5903874229 -23.7920442522 -601.0
-13.5903874229 -23.7920442522 -602.0
-13.5903874229 -23.7920442522 -603.0
-14.0863869638 -24.6603670351 -604.0
-13.5903874229 -23.7920442522 -605.0
-13.5903874229 -23.7920442522 -606.0
-13.5903874229 -23.7920442522 -607.0
-13.5903874229 -23.7920442522 -608.0
-14.0863869638 -24.6603670351 -609.0
-14.0863869638 -24.6603670351 -610.0
-14.0863869638 -24.6603670351 -611.0
-14.0863869638 -24.6603670351 -612.0
-14.0863869638 -24.6603670351 -613.0
-14.0863869638 -24.6603670351 -616.0
-14.0863869638 -24.6603670351 -617.0
-7.48571022955 -12.3013878225 -556.0
-8.00555121772 -13.1556508657 -557.0
-8.00555121772 -13.1556508657 -558.0
-8.00555121772 -13.1556508657 -559.0
-8.52539220588 -14.0099139089 -560.0
-8.52539220588 -14.0099139089 -561.0
-9.56507418221 -15.7184399954 -563.0
-10.0849151704 -16.5727030386 -565.0
-10.0849151704 -16.5727030386 -566.0
-10.0849151704 -16.5727030386 -567.0
-10.0849151704 -16.5727030386 -568.0
-10.6047561585 -17.4269660819 -569.0
-10.6047561585 -17.4269660819 -570.0
-11.1245971467 -18.2812291251 -571.0
-11.1245971467 -18.2812291251 -572.0
-11.1245971467 -18.2812291251 -573.0
-11.1245971467 -18.2812291251 -574.0
-11.6444381349 -19.1354921683 -575.0
-11.6444381349 -19.1354921683 -576.0
-11.6444381349 -19.1354921683 -577.0
-12.164279123 -19.9897552115 -578.0
-12.164279123 -19.9897552115 -579.0
-12.164279123 -19.9897552115 -580.0
-12.164279123 -19.9897552115 -581.0
-12.164279123 -19.9897552115 -582.0
-12.6841201112 -20.8440182548 -583.0
-13.2039610994 -21.698281298 -584.0
-13.2039610994 -21.698281298 -585.0
-13.2039610994 -21.698281298 -586.0
-13.2039610994 -21.698281298 -587.0
-13.2039610994 -21.698281298 -588.0
-13.2039610994 -21.698281298 -589.0
-13.2039610994 -21.698281298 -590.0
-13.2039610994 -21.698281298 -591.0
-13.7238020875 -22.5525443412 -592.0
-13.7238020875 -22.5525443412 -593.0
-13.7238020875 -22.5525443412 -594.0
-13.7238020875 -22.5525443412 -595.0
-13.7238020875 -22.5525443412 -596.0
-13.7238020875 -22.5525443412 -597.0
-13.7238020875 -22.5525443412 -598.0
-14.2436430757 -23.4068073844 -599.0
-14.2436430757 -23.4068073844 -600.0
-14.2436430757 -23.4068073844 -601.0
-14.2436430757 -23.4068073844 -602.0
-14.2436430757 -23.4068073844 -603.0
-14.2436430757 -23.4068073844 -604.0
-14.2436430757 -23.4068073844 -605.0
-14.2436430757 -23.4068073844 -606.0
-14.2436430757 -23.4068073844 -607.0
-14.7634840638 -24.2610704277 -608.0
-14.7634840638 -24.2610704277 -609.0
-14.7634840638 -24.2610704277 -610.0
-14.7634840638 -24.2610704277 -611.0
-14.7634840638 -24.2610704277 -612.0
-14.2436430757 -23.4068073844 -613.0
-14.2436430757 -23.4068073844 -614.0
-8.90986071444 -13.7686013106 -559.0
-8.90986071444 -13.7686013106 -560.0
-8.90986071444 -13.7686013106 -561.0
-9.45314490434 -14.608150171 -562.0
-9.99642909424 -15.4476990314 -563.0
-9.99642909424 -15.4476990314 -564.0
-10.5397132841 -16.2872478918 -565.0
-10.5397132841 -16.2872478918 -566.0
-10.5397132841 -16.2872478918 -567.0
-11.0829974741 -17.1267967522 -568.0
-11.0829974741 -17.1267967522 -569.0
-11.0829974741 -17.1267967522 -570.0
-11.626281664 -17.9663456126 -571.0
-11.626281664 -17.9663456126 -572.0
-11.626281664 -17.9663456126 -573.0
-11.626281664 -17.9663456126 -574.0
-11.626281664 -17.9663456126 -575.0
-12.1695658539 -18.805894473 -576.0
-12.1695658539 -18.805894473 -577.0
-12.7128500438 -19.6454433334 -578.0
-12.7128500438 -19.6454433334 -579.0
-12.7128500438 -19.6454433334 -580.0
-13.2561342337 -20.4849921938 -581.0
-13.2561342337 -20.4849921938 -582.0
-13.2561342337 -20.4849921938 -583.0
-13.7994184236 -21.3245410542 -584.0
-13.7994184236 -21.3245410542 -585.0
-13.7994184236 -21.3245410542 -586.0
-13.7994184236 -21.3245410542 -587.0
-13.7994184236 -21.3245410542 -588.0
-13.7994184236 -21.3245410542 -589.0
-13.7994184236 -21.3245410542 -590.0
-13.7994184236 -21.3245410542 -591.0
-13.7994184236 -21.3245410542 -592.0
-13.7994184236 -21.3245410542 -593.0
-14.3427026135 -22.1640899146 -594.0
-14.3427026135 -22.1640899146 -595.0
-14.3427026135 -22.1640899146 -596.0
-14.3427026135 -22.1640899146 -597.0
-14.3427026135 -22.1640899146 -598.0
-14.8859868034 -23.003638775 -599.0
-14.8859868034 -23.003638775 -600.0
-14.8859868034 -23.003638775 -601.0
-14.8859868034 -23.003638775 -602.0
-14.8859868034 -23.003638775 -603.0
-14.8859868034 -23.003638775 -604.0
-14.8859868034 -23.003638775 -605.0
-14.8859868034 -23.003638775 -606.0
-14.8859868034 -23.003638775 -607.0
-14.8859868034 -23.003638775 -608.0
-15.4292709933 -23.8431876354 -609.0
-15.9725551832 -24.6827364958 -611.0
-15.4292709933 -23.8431876354 -612.0
-15.4292709933 -23.8431876354 -613.0
-15.4292709933 -23.8431876354 -614.0
-8.72119227334 -12.6925492054 -557.0
-8.72119227334 -12.6925492054 -558.0
-8.72119227334 -12.6925492054 -559.0
-9.28750345992 -13.5167407122 -560.0
-9.28750345992 -13.5167407122 -561.0
-9.8538146465 -14.3409322191 -562.0
-9.8538146465 -14.3409322191 -563.0
-9.8538146465 -14.3409322191 -564.0
-10.4201258331 -15.1651237259 -565.0
-11.5527482062 -16.8135067396 -567.0
-10.9864370197 -15.9893152328 -568.0
-10.9864370197 -15.9893152328 -569.0
-11.5527482062 -16.8135067396 -570.0
-11.5527482062 -16.8135067396 -571.0
-11.5527482062 -16.8135067396 -572.0
-12.1190593928 -17.6376982465 -573.0
-12.1190593928 -17.6376982465 -574.0
-12.1190593928 -17.6376982465 -575.0
-12.6853705794 -18.4618897533 -576.0
-12.6853705794 -18.4618897533 -577.0
-13.251681766 -19.2860812602 -578.0
-13.251681766 -19.2860812602 -579.0
-13.251681766 -19.2860812602 -580.0
-13.251681766 -19.2860812602 -581.0
-13.251681766 -19.2860812602 -582.0
-13.251681766 -19.2860812602 -583.0
-13.8179929526 -20.110272767 -584.0
-13.8179929526 -20.110272767 -585.0
-13.8179929526 -20.110272767 -586.0
-14.3843041391 -20.9344642738 -587.0
-14.3843041391 -20.9344642738 -588.0
-14.3843041391 -20.9344642738 -589.0
-14.3843041391 -20.9344642738 -590.0
-14.3843041391 -20.9344642738 -591.0
-14.3843041391 -20.9344642738 -592.0
-14.3843041391 -20.9344642738 -593.0
-14.3843041391 -20.9344642738 -594.0
-14.9506153257 -21.7586557807 -595.0
-14.9506153257 -21.7586557807 -596.0
-14.9506153257 -21.7586557807 -597.0
-14.9506153257 -21.7586557807 -598.0
-14.9506153257 -21.7586557807 -599.0
-14.9506153257 -21.7586557807 -600.0
-15.5169265123 -22.5828472875 -601.0
-15.5169265123 -22.5828472875 -602.0
-15.5169265123 -22.5828472875 -603.0
-15.5169265123 -22.5828472875 -604.0
-15.5169265123 -22.5828472875 -605.0
-15.5169265123 -22.5828472875 -606.0
-15.5169265123 -22.5828472875 -607.0
-15.5169265123 -22.5828472875 -608.0
-15.5169265123 -22.5828472875 -609.0
-15.5169265123 -22.5828472875 -610.0
-15.5169265123 -22.5828472875 -611.0
-15.5169265123 -22.5828472875 -612.0
-15.5169265123 -22.5828472875 -613.0
-9.06912679624 -12.4463223144 -560.0
-9.06912679624 -12.4463223144 -561.0
-10.2469354711 -14.0627278098 -562.0
-10.2469354711 -14.0627278098 -563.0
-10.8358398085 -14.8709305575 -564.0
-10.8358398085 -14.8709305575 -565.0
-10.8358398085 -14.8709305575 -566.0
-10.8358398085 -14.8709305575 -567.0
-11.4247441459 -15.6791333051 -568.0
-12.0136484833 -16.4873360528 -569.0
-12.0136484833 -16.4873360528 -570.0
-12.0136484833 -16.4873360528 -571.0
-12.0136484833 -16.4873360528 -572.0
-12.6025528208 -17.2955388005 -573.0
-12.6025528208 -17.2955388005 -574.0
-13.1914571582 -18.1037415482 -575.0
-13.1914571582 -18.1037415482 -576.0
-13.1914571582 -18.1037415482 -577.0
-13.7803614956 -18.9119442959 -578.0
-13.7803614956 -18.9119442959 -579.0
-13.7803614956 -18.9119442959 -580.0
-14.369265833 -19.7201470436 -581.0
-14.369265833 -19.7201470436 -582.0
-14.369265833 -19.7201470436 -583.0
-14.369265833 -19.7201470436 -584.0
-14.369265833 -19.7201470436 -585.0
-14.369265833 -19.7201470436 -586.0
-14.9581701704 -20.5283497913 -587.0
-14.9581701704 -20.5283497913 -588.0
-14.9581701704 -20.5283497913 -589.0
-14.9581701704 -20.5283497913 -590.0
-14.9581701704 -20.5283497913 -591.0
-14.9581701704 -20.5283497913 -592.0
-14.9581701704 -20.5283497913 -593.0
-14.9581701704 -20.5283497913 -594.0
-14.9581701704 -20.5283497913 -595.0
-14.9581701704 -20.5283497913 -596.0
-15.5470745078 -21.336552539 -597.0
-15.5470745078 -21.336552539 -598.0
-15.5470745078 -21.336552539 -599.0
-15.5470745078 -21.336552539 -600.0
-15.5470745078 -21.336552539 -601.0
-16.1359788453 -22.1447552866 -602.0
-16.1359788453 -22.1447552866 -603.0
-16.1359788453 -22.1447552866 -604.0
-16.1359788453 -22.1447552866 -605.0
-16.1359788453 -22.1447552866 -606.0
-16.1359788453 -22.1447552866 -607.0
-16.7248831827 -22.9529580343 -608.0
-16.1359788453 -22.1447552866 -609.0
-16.7248831827 -22.9529580343 -610.0
-16.7248831827 -22.9529580343 -611.0
-16.7248831827 -22.9529580343 -612.0
-16.7248831827 -22.9529580343 -613.0
-8.79906720977 -11.3989655775 -557.0
-9.41011354378 -12.1905604093 -558.0
-9.41011354378 -12.1905604093 -559.0
-10.0211598778 -12.9821552411 -560.0
-10.0211598778 -12.9821552411 -561.0
-10.0211598778 -12.9821552411 -562.0
-10.6322062118 -13.7737500729 -563.0
-11.2432525458 -14.5653449046 -564.0
-11.2432525458 -14.5653449046 -565.0
-11.2432525458 -14.5653449046 -566.0
-11.2432525458 -14.5653449046 -567.0
-11.8542988798 -15.3569397364 -568.0
-11.8542988798 -15.3569397364 -569.0
-11.8542988798 -15.3569397364 -570.0
-12.4653452138 -16.1485345682 -571.0
-12.4653452138 -16.1485345682 -572.0
-13.0763915479 -16.9401294 -573.0
-13.6874378819 -17.7317242317 -574.0
-13.6874378819 -17.7317242317 -575.0
-13.6874378819 -17.7317242317 -576.0
-13.6874378819 -17.7317242317 -577.0
-13.6874378819 -17.7317242317 -578.0
-14.2984842159 -18.5233190635 -579.0
-14.2984842159 -18.5233190635 -580.0
-14.2984842159 -18.5233190635 -581.0
-14.2984842159 -18.5233190635 -582.0
-14.2984842159 -18.5233190635 -583.0
-14.2984842159 -18.5233190635 -584.0
-14.2984842159 -18.5233190635 -585.0
-14.2984842159 -18.5233190635 -586.0
-14.9095305499 -19.3149138953 -587.0
-14.9095305499 -19.3149138953 -588.0
-14.9095305499 -19.3149138953 -589.0
-15.5205768839 -20.106508727 -590.0
-15.5205768839 -20.106508727 -591.0
-15.5205768839 -20.106508727 -592.0
-15.5205768839 -20.106508727 -593.0
-15.5205768839 -20.106508727 -594.0
-15.5205768839 -20.106508727 -595.0
-16.1316232179 -20.8981035588 -596.0
-16.1316232179 -20.8981035588 -597.0
-16.1316232179 -20.8981035588 -598.0
-16.1316232179 -20.8981035588 -599.0
-16.1316232179 -20.8981035588 -600.0
-16.1316232179 -20.8981035588 -601.0
-16.7426695519 -21.6896983906 -602.0
-16.7426695519 -21.6896983906 -603.0
-16.7426695519 -21.6896983906 -604.0
-16.7426695519 -21.6896983906 -605.0
-16.7426695519 -21.6896983906 -606.0
-16.7426695519 -21.6896983906 -607.0
-16.7426695519 -21.6896983906 -608.0
-16.7426695519 -21.6896983906 -609.0
-16.7426695519 -21.6896983906 -610.0
-16.7426695519 -21.6896983906 -611.0
-16.7426695519 -21.6896983906 -612.0
-16.1316232179 -20.8981035588 -613.0
-16.1316232179 -20.8981035588 -614.0
-16.1316232179 -20.8981035588 -615.0
-10.3766115027 -12.6998399093 -559.0
-10.3766115027 -12.6998399093 -560.0
-10.3766115027 -12.6998399093 -561.0
-10.3766115027 -12.6998399093 -562.0
-11.0093317163 -13.4742203916 -563.0
-11.0093317163 -13.4742203916 -564.0
-11.6420519299 -14.2486008739 -565.0
-11.6420519299 -14.2486008739 -566.0
-12.2747721434 -15.0229813561 -567.0
-12.2747721434 -15.0229813561 -568.0
-12.907492357 -15.7973618384 -569.0
-12.907492357 -15.7973618384 -570.0
-12.907492357 -15.7973618384 -571.0
-12.907492357 -15.7973618384 -572.0
-13.5402125706 -16.5717423207 -573.0
-13.5402125706 -16.5717423207 -574.0
-13.5402125706 -16.5717423207 -575.0
-14.1729327842 -17.346122803 -576.0
-14.1729327842 -17.346122803 -577.0
-14.1729327842 -17.346122803 -578.0
-14.8056529978 -18.1205032852 -579.0
-14.8056529978 -18.1205032852 -580.0
-14.8056529978 -18.1205032852 -581.0
-14.8056529978 -18.1205032852 -582.0
-14.8056529978 -18.1205032852 -583.0
-15.4383732113 -18.8948837675 -584.0
-15.4383732113 -18.8948837675 -585.0
-15.4383732113 -18.8948837675 -586.0
-15.4383732113 -18.8948837675 -587.0
-16.0710934249 -19.6692642498 -588.0
-16.0710934249 -19.6692642498 -589.0
-16.0710934249 -19.6692642498 -590.0
-16.0710934249 -19.6692642498 -591.0
-16.0710934249 -19.6692642498 -592.0
-16.0710934249 -19.6692642498 -593.0
-16.0710934249 -19.6692642498 -594.0
-16.0710934249 -19.6692642498 -595.0
-16.0710934249 -19.6692642498 -596.0
-16.0710934249 -19.6692642498 -597.0
-16.0710934249 -19.6692642498 -598.0
-16.7038136385 -20.4436447321 -599.0
-17.3365338521 -21.2180252143 -600.0
-17.3365338521 -21.2180252143 -601.0
-17.3365338521 -21.2180252143 -602.0
-17.3365338521 -21.2180252143 -603.0
-17.3365338521 -21.2180252143 -604.0
-17.3365338521 -21.2180252143 -605.0
-17.3365338521 -21.2180252143 -606.0
-17.3365338521 -21.2180252143 -607.0
-17.3365338521 -21.2180252143 -608.0
-10.0702043282 -11.651222459 -556.0
-10.0702043282 -11.651222459 -557.0
-10.0702043282 -11.651222459 -558.0
-10.7241137001 -12.4077953459 -559.0
-10.0702043282 -11.651222459 -560.0
-10.7241137001 -12.4077953459 -561.0
-10.7241137001 -12.4077953459 -562.0
-11.3780230721 -13.1643682329 -563.0
-12.031932444 -13.9209411198 -564.0
-12.031932444 -13.9209411198 -565.0
-12.031932444 -13.9209411198 -566.0
-12.031932444 -13.9209411198 -567.0
-12.685841816 -14.6775140068 -568.0
-12.685841816 -14.6775140068 -569.0
-12.685841816 -14.6775140068 -570.0
-13.339751188 -15.4340868937 -571.0
-13.339751188 -15.4340868937 -572.0
-13.9936605599 -16.1906597807 -573.0
-13.9936605599 -16.1906597807 -574.0
-13.9936605599 -16.1906597807 -575.0
-13.9936605599 -16.1906597807 -576.0
-14.6475699319 -16.9472326676 -577.0
-14.6475699319 -16.9472326676 -578.0
-14.6475699319 -16.9472326676 -579.0
-15.3014793038 -17.7038055546 -580.0
-15.3014793038 -17.7038055546 -581.0
-15.3014793038 -17.7038055546 -582.0
-15.3014793038 -17.7038055546 -583.0
-15.3014793038 -17.7038055546 -584.0
-15.9553886758 -18.4603784415 -585.0
-15.9553886758 -18.4603784415 -586.0
-15.9553886758 -18.4603784415 -587.0
-15.9553886758 -18.4603784415 -588.0
-15.9553886758 -18.4603784415 -589.0
-15.9553886758 -18.4603784415 -590.0
-15.9553886758 -18.4603784415 -591.0
-15.9553886758 -18.4603784415 -592.0
-15.9553886758 -18.4603784415 -593.0
-16.6092980478 -19.2169513285 -594.0
-16.6092980478 -19.2169513285 -595.0
-16.6092980478 -19.2169513285 -596.0
-16.6092980478 -19.2169513285 -597.0
-17.2632074197 -19.9735242154 -598.0
-17.2632074197 -19.9735242154 -599.0
-17.2632074197 -19.9735242154 -600.0
-17.2632074197 -19.9735242154 -601.0
-17.2632074197 -19.9735242154 -602.0
-17.2632074197 -19.9735242154 -603.0
-17.2632074197 -19.9735242154 -604.0
-17.2632074197 -19.9735242154 -605.0
-17.9171167917 -20.7300971024 -606.0
-17.9171167917 -20.7300971024 -607.0
-17.9171167917 -20.7300971024 -608.0
-17.9171167917 -20.7300971024 -609.0
-17.9171167917 -20.7300971024 -612.0
-9.71420509914 -10.6298739076 -556.0
-10.3888026755 -11.3680595956 -557.0
-10.3888026755 -11.3680595956 -558.0
-10.3888026755 -11.3680595956 -559.0
-10.3888026755 -11.3680595956 -560.0
-10.3888026755 -11.3680595956 -561.0
-11.7379978281 -12.8444309717 -562.0
-11.7379978281 -12.8444309717 -563.0
-11.7379978281 -12.8444309717 -564.0
-12.4125954045 -13.5826166597 -565.0
-12.4125954045 -13.5826166597 -566.0
-12.4125954045 -13.5826166597 -567.0
-13.0871929808 -14.3208023478 -568.0
-13.0871929808 -14.3208023478 -569.0
-13.7617905571 -15.0589880358 -570.0
-13.7617905571 -15.0589880358 -571.0
-13.7617905571 -15.0589880358 -572.0
-13.7617905571 -15.0589880358 -573.0
-13.7617905571 -15.0589880358 -574.0
-14.4363881334 -15.7971737238 -575.0
-14.4363881334 -15.7971737238 -576.0
-15.1109857098 -16.5353594118 -577.0
-15.1109857098 -16.5353594118 -578.0
-15.1109857098 -16.5353594118 -579.0
-15.1109857098 -16.5353594118 -580.0
-15.7855832861 -17.2735450999 -581.0
-15.7855832861 -17.2735450999 -582.0
-15.7855832861 -17.2735450999 -583.0
-15.7855832861 -17.2735450999 -584.0
-15.7855832861 -17.2735450999 -585.0
-16.4601808624 -18.0117307879 -586.0
-16.4601808624 -18.0117307879 -587.0
-16.4601808624 -18.0117307879 -588.0
-16.4601808624 -18.0117307879 -589.0
-17.1347784388 -18.7499164759 -590.0
-17.1347784388 -18.7499164759 -591.0
-17.1347784388 -18.7499164759 -592.0
-17.1347784388 -18.7499164759 -593.0
-17.1347784388 -18.7499164759 -594.0
-17.1347784388 -18.7499164759 -595.0
-17.1347784388 -18.7499164759 -596.0
-17.1347784388 -18.7499164759 -597.0
-17.8093760151 -19.488102164 -598.0
-17.8093760151 -19.488102164 -599.0
-17.8093760151 -19.488102164 -600.0
-17.8093760151 -19.488102164 -601.0
-17.8093760151 -19.488102164 -602.0
-17.8093760151 -19.488102164 -603.0
-17.8093760151 -19.488102164 -604.0
-17.8093760151 -19.488102164 -605.0
-17.8093760151 -19.488102164 -606.0
-17.8093760151 -19.488102164 -607.0
-17.8093760151 -19.488102164 -608.0
-10.6994422557 -11.0761877655 -558.0
-10.0046732781 -10.3569547937 -559.0
-10.6994422557 -11.0761877655 -560.0
-11.3942112334 -11.7954207373 -561.0
-11.3942112334 -11.7954207373 -562.0
-12.088980211 -12.514653709 -563.0
-12.088980211 -12.514653709 -564.0
-12.7837491887 -13.2338866808 -565.0
-12.7837491887 -13.2338866808 -566.0
-12.088980211 -12.514653709 -567.0
-12.7837491887 -13.2338866808 -568.0
-13.4785181663 -13.9531196526 -569.0
-14.173287144 -14.6723526244 -570.0
-14.173287144 -14.6723526244 -571.0
-14.173287144 -14.6723526244 -572.0
-14.173287144 -14.6723526244 -573.0
-14.173287144 -14.6723526244 -574.0
-14.173287144 -14.6723526244 -575.0
-14.8680561216 -15.3915855962 -576.0
-14.8680561216 -15.3915855962 -577.0
-15.5628250993 -16.110818568 -578.0
-15.5628250993 -16.110818568 -579.0
-15.5628250993 -16.110818568 -580.0
-15.5628250993 -16.110818568 -581.0
-16.2575940769 -16.8300515397 -582.0
-16.2575940769 -16.8300515397 -583.0
-16.2575940769 -16.8300515397 -584.0
-16.2575940769 -16.8300515397 -585.0
-16.9523630546 -17.5492845115 -586.0
-16.9523630546 -17.5492845115 -587.0
-16.9523630546 -17.5492845115 -588.0
-16.9523630546 -17.5492845115 -589.0
-17.6471320322 -18.2685174833 -590.0
-17.6471320322 -18.2685174833 -591.0
-17.6471320322 -18.2685174833 -592.0
-16.9523630546 -17.5492845115 -593.0
-17.6471320322 -18.2685174833 -594.0
-17.6471320322 -18.2685174833 -595.0
-17.6471320322 -18.2685174833 -596.0
-17.6471320322 -18.2685174833 -597.0
-17.6471320322 -18.2685174833 -598.0
-17.6471320322 -18.2685174833 -599.0
-18.3419010099 -18.9877504551 -600.0
-18.3419010099 -18.9877504551 -601.0
-18.3419010099 -18.9877504551 -602.0
-18.3419010099 -18.9877504551 -603.0
-18.3419010099 -18.9877504551 -604.0
-18.3419010099 -18.9877504551 -605.0
-18.3419010099 -18.9877504551 -606.0
-19.0366699875 -19.7069834269 -607.0
-19.0366699875 -19.7069834269 -608.0
-18.3419010099 -18.9877504551 -609.0
