ply
format ascii 1.0
element vertex 1339
property float x
property float y
property float z
element face 0
element edge 0
end_header
1.25399646434 0.622489250859 -462.0
0.358284704096 0.177854071674 -463.0
1.25399646434 0.622489250859 -464.0
1.25399646434 0.622489250859 -465.0
1.25399646434 0.622489250859 -466.0
1.25399646434 0.622489250859 -467.0
1.25399646434 0.622489250859 -468.0
1.25399646434 0.622489250859 -469.0
0.358284704096 0.177854071674 -470.0
0.358284704096 0.177854071674 -471.0
0.358284704096 0.177854071674 -472.0
0.358284704096 0.177854071674 -473.0
0.358284704096 0.177854071674 -474.0
0.358284704096 0.177854071674 -475.0
0.358284704096 0.177854071674 -476.0
0.358284704096 0.177854071674 -477.0
0.358284704096 0.177854071674 -478.0
0.358284704096 0.177854071674 -479.0
0.358284704096 0.177854071674 -480.0
-0.537427056144 -0.266781107511 -481.0
-0.537427056144 -0.266781107511 -482.0
-0.537427056144 -0.266781107511 -483.0
-0.537427056144 -0.266781107511 -484.0
-1.43313881638 -0.711416286696 -485.0
-1.43313881638 -0.711416286696 -486.0
-1.43313881638 -0.711416286696 -487.0
-1.43313881638 -0.711416286696 -488.0
-2.32885057662 -1.15605146588 -489.0
-2.32885057662 -1.15605146588 -490.0
-3.22456233686 -1.60068664507 -491.0
-3.22456233686 -1.60068664507 -492.0
-3.22456233686 -1.60068664507 -493.0
-4.1202740971 -2.04532182425 -494.0
-4.1202740971 -2.04532182425 -495.0
-4.1202740971 -2.04532182425 -496.0
-4.1202740971 -2.04532182425 -497.0
-5.01598585734 -2.48995700344 -498.0
-5.01598585734 -2.48995700344 -499.0
-5.91169761758 -2.93459218262 -500.0
-5.91169761758 -2.93459218262 -501.0
-5.91169761758 -2.93459218262 -502.0
-6.80740937782 -3.37922736181 -503.0
-6.80740937782 -3.37922736181 -504.0
-6.80740937782 -3.37922736181 -505.0
-6.80740937782 -3.37922736181 -506.0
-7.70312113806 -3.82386254099 -507.0
-7.70312113806 -3.82386254099 -508.0
-8.5988328983 -4.26849772018 -509.0
-8.5988328983 -4.26849772018 -510.0
-9.49454465854 -4.71313289936 -511.0
-9.49454465854 -4.71313289936 -512.0
-10.3902564188 -5.15776807855 -513.0
-10.3902564188 -5.15776807855 -514.0
-11.285968179 -5.60240325773 -515.0
-12.1816799393 -6.04703843692 -516.0
-13.0773916995 -6.4916736161 -517.0
-12.1816799393 -6.04703843692 -518.0
-12.1816799393 -6.04703843692 -519.0
-7.70312113806 -3.82386254099 -538.0
-6.80740937782 -3.37922736181 -539.0
-5.91169761758 -2.93459218262 -540.0
-5.01598585734 -2.48995700344 -541.0
-3.22456233686 -1.60068664507 -542.0
2.14970822457 1.06712443004 -543.0
8.41969054625 4.17957068434 -544.0
9.31540230649 4.62420586352 -545.0
11.106825827 5.51347622189 -546.0
12.0025375872 5.95811140108 -547.0
13.7939611077 6.84738175945 -548.0
14.6896728679 7.29201693863 -549.0
15.5853846282 7.73665211782 -550.0
16.4810963884 8.181287297 -551.0
18.2725199089 9.07055765537 -552.0
18.2725199089 9.07055765537 -553.0
19.1682316691 9.51519283456 -554.0
20.0639434294 9.95982801374 -555.0
20.9596551896 10.4044631929 -556.0
22.7510787101 11.2937335513 -557.0
22.7510787101 11.2937335513 -558.0
23.6467904703 11.7383687305 -559.0
25.4382139908 12.6276390889 -560.0
26.333925751 13.072274268 -561.0
26.333925751 13.072274268 -562.0
28.1253492715 13.9615446264 -563.0
29.0210610318 14.4061798056 -564.0
31.7081963125 15.7400853431 -565.0
32.6039080727 16.1847205223 -566.0
33.499619833 16.6293557015 -567.0
35.2910433534 17.5186260599 -568.0
36.1867551137 17.9632612391 -569.0
37.0824668739 18.4078964183 -570.0
37.9781786342 18.8525315974 -571.0
37.9781786342 18.8525315974 -572.0
38.8738903944 19.2971667766 -573.0
39.7696021546 19.7418019558 -574.0
40.6653139149 20.186437135 -575.0
40.6653139149 20.186437135 -576.0
41.5610256751 20.6310723142 -577.0
41.5610256751 20.6310723142 -578.0
42.4567374353 21.0757074934 -579.0
42.4567374353 21.0757074934 -580.0
43.3524491956 21.5203426726 -581.0
44.2481609558 21.9649778517 -582.0
44.2481609558 21.9649778517 -583.0
44.2481609558 21.9649778517 -584.0
45.1438727161 22.4096130309 -585.0
45.1438727161 22.4096130309 -586.0
45.1438727161 22.4096130309 -587.0
46.0395844763 22.8542482101 -588.0
46.9352962365 23.2988833893 -589.0
46.9352962365 23.2988833893 -590.0
46.9352962365 23.2988833893 -591.0
47.8310079968 23.7435185685 -592.0
47.8310079968 23.7435185685 -593.0
47.8310079968 23.7435185685 -594.0
47.8310079968 23.7435185685 -595.0
47.8310079968 23.7435185685 -596.0
47.8310079968 23.7435185685 -597.0
48.726719757 24.1881537477 -598.0
48.726719757 24.1881537477 -599.0
49.6224315173 24.6327889268 -600.0
49.6224315173 24.6327889268 -601.0
49.6224315173 24.6327889268 -602.0
48.726719757 24.1881537477 -603.0
48.726719757 24.1881537477 -604.0
48.726719757 24.1881537477 -605.0
49.6224315173 24.6327889268 -606.0
49.6224315173 24.6327889268 -607.0
50.5181432775 25.077424106 -608.0
50.5181432775 25.077424106 -609.0
50.5181432775 25.077424106 -610.0
50.5181432775 25.077424106 -611.0
50.5181432775 25.077424106 -612.0
49.6224315173 24.6327889268 -613.0
49.6224315173 24.6327889268 -614.0
50.5181432775 25.077424106 -615.0
50.5181432775 25.077424106 -616.0
50.5181432775 25.077424106 -617.0
50.5181432775 25.077424106 -618.0
50.5181432775 25.077424106 -619.0
50.5181432775 25.077424106 -620.0
50.5181432775 25.077424106 -621.0
50.5181432775 25.077424106 -622.0
50.5181432775 25.077424106 -623.0
50.5181432775 25.077424106 -624.0
50.5181432775 25.077424106 -625.0
50.5181432775 25.077424106 -626.0
50.5181432775 25.077424106 -627.0
50.5181432775 25.077424106 -628.0
50.5181432775 25.077424106 -629.0
50.5181432775 25.077424106 -630.0
50.5181432775 25.077424106 -631.0
50.5181432775 25.077424106 -632.0
50.5181432775 25.077424106 -633.0
50.5181432775 25.077424106 -634.0
50.5181432775 25.077424106 -635.0
49.6224315173 24.6327889268 -636.0
49.6224315173 24.6327889268 -637.0
50.5181432775 25.077424106 -638.0
49.6224315173 24.6327889268 -639.0
49.6224315173 24.6327889268 -640.0
49.6224315173 24.6327889268 -641.0
49.6224315173 24.6327889268 -642.0
49.6224315173 24.6327889268 -643.0
49.6224315173 24.6327889268 -644.0
48.726719757 24.1881537477 -645.0
48.726719757 24.1881537477 -646.0
48.726719757 24.1881537477 -647.0
48.726719757 24.1881537477 -648.0
48.726719757 24.1881537477 -649.0
48.726719757 24.1881537477 -650.0
48.726719757 24.1881537477 -651.0
48.726719757 24.1881537477 -652.0
48.726719757 24.1881537477 -653.0
47.8310079968 23.7435185685 -654.0
47.8310079968 23.7435185685 -655.0
47.8310079968 23.7435185685 -656.0
46.9352962365 23.2988833893 -657.0
46.9352962365 23.2988833893 -658.0
46.9352962365 23.2988833893 -659.0
46.0395844763 22.8542482101 -660.0
46.0395844763 22.8542482101 -661.0
45.1438727161 22.4096130309 -662.0
45.1438727161 22.4096130309 -663.0
44.2481609558 21.9649778517 -664.0
44.2481609558 21.9649778517 -665.0
44.2481609558 21.9649778517 -666.0
44.2481609558 21.9649778517 -667.0
43.3524491956 21.5203426726 -668.0
43.3524491956 21.5203426726 -669.0
42.4567374353 21.0757074934 -670.0
41.5610256751 20.6310723142 -671.0
40.6653139149 20.186437135 -672.0
40.6653139149 20.186437135 -673.0
40.6653139149 20.186437135 -674.0
39.7696021546 19.7418019558 -675.0
38.8738903944 19.2971667766 -676.0
38.8738903944 19.2971667766 -677.0
29.916772792 14.8508149848 -683.0
29.0210610318 14.4061798056 -684.0
29.0210610318 14.4061798056 -685.0
28.1253492715 13.9615446264 -686.0
29.0210610318 14.4061798056 -687.0
28.1253492715 13.9615446264 -688.0
29.0210610318 14.4061798056 -689.0
28.1253492715 13.9615446264 -690.0
28.1253492715 13.9615446264 -691.0
28.1253492715 13.9615446264 -692.0
28.1253492715 13.9615446264 -693.0
28.1253492715 13.9615446264 -694.0
28.1253492715 13.9615446264 -695.0
28.1253492715 13.9615446264 -696.0
28.1253492715 13.9615446264 -697.0
28.1253492715 13.9615446264 -698.0
28.1253492715 13.9615446264 -699.0
28.1253492715 13.9615446264 -700.0
27.2296375113 13.5169094472 -701.0
27.2296375113 13.5169094472 -702.0
28.1253492715 13.9615446264 -703.0
27.2296375113 13.5169094472 -704.0
27.2296375113 13.5169094472 -705.0
27.2296375113 13.5169094472 -706.0
26.333925751 13.072274268 -707.0
-24.3003091733 -10.8191947058 -401.0
-21.5596728004 -9.59898477659 -402.0
-21.5596728004 -9.59898477659 -403.0
-20.6461273427 -9.19224813351 -404.0
-19.7325818851 -8.78551149044 -405.0
-19.7325818851 -8.78551149044 -406.0
-18.8190364274 -8.37877484736 -407.0
-17.9054909698 -7.97203820429 -408.0
-16.0784000545 -7.15856491813 -409.0
-15.1648545969 -6.75182827506 -410.0
-15.1648545969 -6.75182827506 -411.0
-13.3377636816 -5.93835498891 -412.0
-12.4242182239 -5.53161834583 -413.0
-11.5106727663 -5.12488170276 -414.0
-11.5106727663 -5.12488170276 -415.0
-10.5971273087 -4.71814505968 -416.0
-10.5971273087 -4.71814505968 -417.0
-9.68358185101 -4.3114084166 -418.0
-8.77003639337 -3.90467177353 -419.0
-7.85649093573 -3.49793513045 -420.0
-7.85649093573 -3.49793513045 -421.0
-6.94294547808 -3.09119848738 -422.0
-6.94294547808 -3.09119848738 -423.0
-6.94294547808 -3.09119848738 -424.0
-6.02940002044 -2.6844618443 -425.0
-5.1158545628 -2.27772520122 -426.0
-5.1158545628 -2.27772520122 -427.0
-5.1158545628 -2.27772520122 -428.0
-5.1158545628 -2.27772520122 -429.0
-4.20230910516 -1.87098855815 -430.0
-4.20230910516 -1.87098855815 -431.0
-3.28876364751 -1.46425191507 -432.0
-3.28876364751 -1.46425191507 -433.0
-3.28876364751 -1.46425191507 -434.0
-3.28876364751 -1.46425191507 -435.0
-2.37521818987 -1.057515272 -436.0
-2.37521818987 -1.057515272 -437.0
-2.37521818987 -1.057515272 -438.0
-2.37521818987 -1.057515272 -439.0
-1.46167273223 -0.650778628921 -440.0
-1.46167273223 -0.650778628921 -441.0
-1.46167273223 -0.650778628921 -442.0
-1.46167273223 -0.650778628921 -443.0
-1.46167273223 -0.650778628921 -444.0
-0.548127274586 -0.244041985845 -445.0
-0.548127274586 -0.244041985845 -446.0
-0.548127274586 -0.244041985845 -447.0
-0.548127274586 -0.244041985845 -448.0
-0.548127274586 -0.244041985845 -449.0
0.365418183057 0.16269465723 -450.0
0.365418183057 0.16269465723 -451.0
0.365418183057 0.16269465723 -452.0
0.365418183057 0.16269465723 -453.0
0.365418183057 0.16269465723 -454.0
0.365418183057 0.16269465723 -455.0
0.365418183057 0.16269465723 -456.0
0.365418183057 0.16269465723 -457.0
1.2789636407 0.569431300306 -458.0
1.2789636407 0.569431300306 -459.0
1.2789636407 0.569431300306 -460.0
1.2789636407 0.569431300306 -461.0
1.2789636407 0.569431300306 -462.0
1.2789636407 0.569431300306 -463.0
1.2789636407 0.569431300306 -464.0
0.365418183057 0.16269465723 -465.0
1.2789636407 0.569431300306 -466.0
1.2789636407 0.569431300306 -467.0
1.2789636407 0.569431300306 -468.0
1.2789636407 0.569431300306 -469.0
0.365418183057 0.16269465723 -470.0
0.365418183057 0.16269465723 -471.0
0.365418183057 0.16269465723 -472.0
0.365418183057 0.16269465723 -473.0
0.365418183057 0.16269465723 -474.0
0.365418183057 0.16269465723 -475.0
0.365418183057 0.16269465723 -476.0
-0.548127274586 -0.244041985845 -477.0
-0.548127274586 -0.244041985845 -478.0
-0.548127274586 -0.244041985845 -479.0
-0.548127274586 -0.244041985845 -480.0
-0.548127274586 -0.244041985845 -481.0
-0.548127274586 -0.244041985845 -482.0
-0.548127274586 -0.244041985845 -483.0
-1.46167273223 -0.650778628921 -484.0
-1.46167273223 -0.650778628921 -485.0
-1.46167273223 -0.650778628921 -486.0
-1.46167273223 -0.650778628921 -487.0
-1.46167273223 -0.650778628921 -488.0
-2.37521818987 -1.057515272 -489.0
-2.37521818987 -1.057515272 -490.0
-2.37521818987 -1.057515272 -491.0
-2.37521818987 -1.057515272 -492.0
-3.28876364751 -1.46425191507 -493.0
-3.28876364751 -1.46425191507 -494.0
-3.28876364751 -1.46425191507 -495.0
-4.20230910516 -1.87098855815 -496.0
-5.1158545628 -2.27772520122 -497.0
-5.1158545628 -2.27772520122 -498.0
-5.1158545628 -2.27772520122 -499.0
-6.02940002044 -2.6844618443 -500.0
-6.02940002044 -2.6844618443 -501.0
-6.02940002044 -2.6844618443 -502.0
-6.02940002044 -2.6844618443 -503.0
-6.94294547808 -3.09119848738 -504.0
-6.94294547808 -3.09119848738 -505.0
-7.85649093573 -3.49793513045 -506.0
-7.85649093573 -3.49793513045 -507.0
-8.77003639337 -3.90467177353 -508.0
-8.77003639337 -3.90467177353 -509.0
-9.68358185101 -4.3114084166 -510.0
-9.68358185101 -4.3114084166 -511.0
-10.5971273087 -4.71814505968 -512.0
-10.5971273087 -4.71814505968 -513.0
-10.5971273087 -4.71814505968 -514.0
-10.5971273087 -4.71814505968 -515.0
-11.5106727663 -5.12488170276 -516.0
-12.4242182239 -5.53161834583 -517.0
-13.3377636816 -5.93835498891 -518.0
-13.3377636816 -5.93835498891 -519.0
-13.3377636816 -5.93835498891 -520.0
-13.3377636816 -5.93835498891 -521.0
-8.77003639337 -3.90467177353 -538.0
-7.85649093573 -3.49793513045 -539.0
-6.02940002044 -2.6844618443 -540.0
-5.1158545628 -2.27772520122 -541.0
-1.46167273223 -0.650778628921 -542.0
1.2789636407 0.569431300306 -543.0
4.93314547127 2.19637787261 -544.0
7.6737818442 3.41658780184 -545.0
10.4144182171 4.63679773106 -546.0
13.1550545901 5.85700766029 -547.0
14.0686000477 6.26374430337 -548.0
14.9821455053 6.67048094644 -549.0
16.8092364206 7.48395423259 -550.0
17.7227818783 7.89069087567 -551.0
18.6363273359 8.29742751875 -552.0
19.5498727936 8.70416416182 -553.0
20.4634182512 9.1109008049 -554.0
21.3769637088 9.51763744797 -555.0
22.2905091665 9.92437409105 -556.0
23.2040546241 10.3311107341 -557.0
24.1176000818 10.7378473772 -558.0
25.0311455394 11.1445840203 -559.0
25.944690997 11.5513206634 -560.0
26.8582364547 11.9580573064 -561.0
27.7717819123 12.3647939495 -562.0
29.5988728276 13.1782672357 -563.0
31.4259637429 13.9917405218 -564.0
32.3395092005 14.3984771649 -565.0
33.2530546582 14.805213808 -566.0
35.0801455735 15.6186870941 -567.0
35.9936910311 16.0254237372 -568.0
37.8207819464 16.8388970233 -569.0
38.734327404 17.2456336664 -570.0
39.6478728617 17.6523703095 -571.0
39.6478728617 17.6523703095 -572.0
40.5614183193 18.0591069526 -573.0
40.5614183193 18.0591069526 -574.0
40.5614183193 18.0591069526 -575.0
41.474963777 18.4658435956 -576.0
42.3885092346 18.8725802387 -577.0
43.3020546923 19.2793168818 -578.0
43.3020546923 19.2793168818 -579.0
44.2156001499 19.6860535249 -580.0
45.1291456075 20.0927901679 -581.0
45.1291456075 20.0927901679 -582.0
46.0426910652 20.499526811 -583.0
46.0426910652 20.499526811 -584.0
46.9562365228 20.9062634541 -585.0
46.9562365228 20.9062634541 -586.0
46.9562365228 20.9062634541 -587.0
47.8697819805 21.3130000972 -588.0
47.8697819805 21.3130000972 -589.0
48.7833274381 21.7197367402 -590.0
48.7833274381 21.7197367402 -591.0
48.7833274381 21.7197367402 -592.0
48.7833274381 21.7197367402 -593.0
49.6968728958 22.1264733833 -594.0
49.6968728958 22.1264733833 -595.0
49.6968728958 22.1264733833 -596.0
49.6968728958 22.1264733833 -597.0
49.6968728958 22.1264733833 -598.0
50.6104183534 22.5332100264 -599.0
50.6104183534 22.5332100264 -600.0
51.523963811 22.9399466695 -601.0
51.523963811 22.9399466695 -602.0
50.6104183534 22.5332100264 -603.0
51.523963811 22.9399466695 -604.0
51.523963811 22.9399466695 -605.0
50.6104183534 22.5332100264 -606.0
50.6104183534 22.5332100264 -607.0
52.4375092687 23.3466833126 -608.0
51.523963811 22.9399466695 -609.0
52.4375092687 23.3466833126 -610.0
52.4375092687 23.3466833126 -611.0
52.4375092687 23.3466833126 -612.0
52.4375092687 23.3466833126 -613.0
52.4375092687 23.3466833126 -614.0
52.4375092687 23.3466833126 -615.0
51.523963811 22.9399466695 -616.0
51.523963811 22.9399466695 -617.0
52.4375092687 23.3466833126 -618.0
52.4375092687 23.3466833126 -619.0
52.4375092687 23.3466833126 -620.0
51.523963811 22.9399466695 -621.0
51.523963811 22.9399466695 -622.0
52.4375092687 23.3466833126 -623.0
52.4375092687 23.3466833126 -624.0
52.4375092687 23.3466833126 -625.0
52.4375092687 23.3466833126 -626.0
52.4375092687 23.3466833126 -627.0
52.4375092687 23.3466833126 -628.0
51.523963811 22.9399466695 -629.0
52.4375092687 23.3466833126 -630.0
52.4375092687 23.3466833126 -631.0
52.4375092687 23.3466833126 -632.0
52.4375092687 23.3466833126 -633.0
51.523963811 22.9399466695 -634.0
51.523963811 22.9399466695 -635.0
51.523963811 22.9399466695 -636.0
51.523963811 22.9399466695 -637.0
51.523963811 22.9399466695 -638.0
51.523963811 22.9399466695 -639.0
51.523963811 22.9399466695 -640.0
51.523963811 22.9399466695 -641.0
51.523963811 22.9399466695 -642.0
51.523963811 22.9399466695 -643.0
51.523963811 22.9399466695 -644.0
50.6104183534 22.5332100264 -645.0
50.6104183534 22.5332100264 -646.0
50.6104183534 22.5332100264 -647.0
50.6104183534 22.5332100264 -648.0
49.6968728958 22.1264733833 -649.0
49.6968728958 22.1264733833 -650.0
49.6968728958 22.1264733833 -651.0
49.6968728958 22.1264733833 -652.0
49.6968728958 22.1264733833 -653.0
49.6968728958 22.1264733833 -654.0
49.6968728958 22.1264733833 -655.0
48.7833274381 21.7197367402 -656.0
48.7833274381 21.7197367402 -657.0
47.8697819805 21.3130000972 -658.0
47.8697819805 21.3130000972 -659.0
47.8697819805 21.3130000972 -660.0
46.9562365228 20.9062634541 -661.0
46.9562365228 20.9062634541 -662.0
46.0426910652 20.499526811 -663.0
45.1291456075 20.0927901679 -664.0
45.1291456075 20.0927901679 -665.0
45.1291456075 20.0927901679 -666.0
45.1291456075 20.0927901679 -667.0
44.2156001499 19.6860535249 -668.0
43.3020546923 19.2793168818 -669.0
43.3020546923 19.2793168818 -670.0
43.3020546923 19.2793168818 -671.0
42.3885092346 18.8725802387 -672.0
42.3885092346 18.8725802387 -673.0
41.474963777 18.4658435956 -674.0
40.5614183193 18.0591069526 -675.0
40.5614183193 18.0591069526 -676.0
39.6478728617 17.6523703095 -677.0
30.5124182853 13.5850038787 -682.0
30.5124182853 13.5850038787 -683.0
29.5988728276 13.1782672357 -684.0
29.5988728276 13.1782672357 -685.0
29.5988728276 13.1782672357 -686.0
29.5988728276 13.1782672357 -687.0
28.68532737 12.7715305926 -688.0
28.68532737 12.7715305926 -689.0
28.68532737 12.7715305926 -690.0
28.68532737 12.7715305926 -691.0
29.5988728276 13.1782672357 -692.0
29.5988728276 13.1782672357 -693.0
29.5988728276 13.1782672357 -694.0
28.68532737 12.7715305926 -695.0
27.7717819123 12.3647939495 -696.0
28.68532737 12.7715305926 -697.0
27.7717819123 12.3647939495 -698.0
27.7717819123 12.3647939495 -699.0
27.7717819123 12.3647939495 -700.0
27.7717819123 12.3647939495 -701.0
27.7717819123 12.3647939495 -702.0
27.7717819123 12.3647939495 -703.0
27.7717819123 12.3647939495 -704.0
27.7717819123 12.3647939495 -705.0
27.7717819123 12.3647939495 -706.0
27.7717819123 12.3647939495 -707.0
-24.7320545246 -9.79211310141 -399.0
-22.8725015529 -9.05586399604 -400.0
-22.8725015529 -9.05586399604 -401.0
-21.942725067 -8.68773944336 -402.0
-21.942725067 -8.68773944336 -403.0
-21.0129485811 -8.31961489067 -404.0
-20.0831720952 -7.95149033799 -405.0
-19.1533956093 -7.5833657853 -406.0
-18.2236191234 -7.21524123262 -407.0
-16.3640661516 -6.47899212725 -408.0
-15.4342896657 -6.11086757457 -409.0
-15.4342896657 -6.11086757457 -410.0
-14.5045131799 -5.74274302188 -411.0
-12.6449602081 -5.00649391651 -412.0
-12.6449602081 -5.00649391651 -413.0
-11.7151837222 -4.63836936383 -414.0
-10.7854072363 -4.27024481114 -415.0
-9.85563075042 -3.90212025846 -416.0
-9.85563075042 -3.90212025846 -417.0
-8.92585426453 -3.53399570577 -418.0
-8.92585426453 -3.53399570577 -419.0
-7.99607777864 -3.16587115309 -420.0
-7.06630129275 -2.7977466004 -421.0
-7.06630129275 -2.7977466004 -422.0
-7.06630129275 -2.7977466004 -423.0
-6.13652480686 -2.42962204772 -424.0
-6.13652480686 -2.42962204772 -425.0
-6.13652480686 -2.42962204772 -426.0
-5.20674832097 -2.06149749503 -427.0
-5.20674832097 -2.06149749503 -428.0
-4.27697183509 -1.69337294235 -429.0
-4.27697183509 -1.69337294235 -430.0
-3.3471953492 -1.32524838966 -431.0
-3.3471953492 -1.32524838966 -432.0
-3.3471953492 -1.32524838966 -433.0
-3.3471953492 -1.32524838966 -434.0
-3.3471953492 -1.32524838966 -435.0
-3.3471953492 -1.32524838966 -436.0
-2.41741886331 -0.95712383698 -437.0
-2.41741886331 -0.95712383698 -438.0
-1.48764237742 -0.588999284295 -439.0
-1.48764237742 -0.588999284295 -440.0
-1.48764237742 -0.588999284295 -441.0
-1.48764237742 -0.588999284295 -442.0
-1.48764237742 -0.588999284295 -443.0
-0.557865891533 -0.220874731611 -444.0
-0.557865891533 -0.220874731611 -445.0
-0.557865891533 -0.220874731611 -446.0
-0.557865891533 -0.220874731611 -447.0
-0.557865891533 -0.220874731611 -448.0
-0.557865891533 -0.220874731611 -449.0
-0.557865891533 -0.220874731611 -450.0
0.371910594355 0.147249821074 -451.0
0.371910594355 0.147249821074 -452.0
0.371910594355 0.147249821074 -453.0
0.371910594355 0.147249821074 -454.0
0.371910594355 0.147249821074 -455.0
0.371910594355 0.147249821074 -456.0
1.30168708024 0.515374373759 -457.0
1.30168708024 0.515374373759 -458.0
1.30168708024 0.515374373759 -459.0
1.30168708024 0.515374373759 -460.0
1.30168708024 0.515374373759 -461.0
1.30168708024 0.515374373759 -462.0
0.371910594355 0.147249821074 -463.0
0.371910594355 0.147249821074 -464.0
0.371910594355 0.147249821074 -465.0
0.371910594355 0.147249821074 -466.0
1.30168708024 0.515374373759 -467.0
1.30168708024 0.515374373759 -468.0
0.371910594355 0.147249821074 -469.0
0.371910594355 0.147249821074 -470.0
0.371910594355 0.147249821074 -471.0
0.371910594355 0.147249821074 -472.0
0.371910594355 0.147249821074 -473.0
0.371910594355 0.147249821074 -474.0
-0.557865891533 -0.220874731611 -475.0
-0.557865891533 -0.220874731611 -476.0
0.371910594355 0.147249821074 -477.0
0.371910594355 0.147249821074 -478.0
0.371910594355 0.147249821074 -479.0
-0.557865891533 -0.220874731611 -480.0
-0.557865891533 -0.220874731611 -481.0
-0.557865891533 -0.220874731611 -482.0
-1.48764237742 -0.588999284295 -483.0
-1.48764237742 -0.588999284295 -484.0
-1.48764237742 -0.588999284295 -485.0
-1.48764237742 -0.588999284295 -486.0
-1.48764237742 -0.588999284295 -487.0
-1.48764237742 -0.588999284295 -488.0
-1.48764237742 -0.588999284295 -489.0
-2.41741886331 -0.95712383698 -490.0
-2.41741886331 -0.95712383698 -491.0
-2.41741886331 -0.95712383698 -492.0
-3.3471953492 -1.32524838966 -493.0
-3.3471953492 -1.32524838966 -494.0
-3.3471953492 -1.32524838966 -495.0
-3.3471953492 -1.32524838966 -496.0
-4.27697183509 -1.69337294235 -497.0
-5.20674832097 -2.06149749503 -498.0
-5.20674832097 -2.06149749503 -499.0
-5.20674832097 -2.06149749503 -500.0
-6.13652480686 -2.42962204772 -501.0
-6.13652480686 -2.42962204772 -502.0
-7.06630129275 -2.7977466004 -503.0
-7.06630129275 -2.7977466004 -504.0
-7.06630129275 -2.7977466004 -505.0
-7.06630129275 -2.7977466004 -506.0
-7.99607777864 -3.16587115309 -507.0
-8.92585426453 -3.53399570577 -508.0
-8.92585426453 -3.53399570577 -509.0
-8.92585426453 -3.53399570577 -510.0
-9.85563075042 -3.90212025846 -511.0
-10.7854072363 -4.27024481114 -512.0
-10.7854072363 -4.27024481114 -513.0
-10.7854072363 -4.27024481114 -514.0
-10.7854072363 -4.27024481114 -515.0
-11.7151837222 -4.63836936383 -516.0
-11.7151837222 -4.63836936383 -517.0
-12.6449602081 -5.00649391651 -518.0
-13.574736694 -5.3746184692 -519.0
-13.574736694 -5.3746184692 -520.0
-14.5045131799 -5.74274302188 -521.0
-14.5045131799 -5.74274302188 -522.0
-15.4342896657 -6.11086757457 -523.0
-11.7151837222 -4.63836936383 -537.0
-7.99607777864 -3.16587115309 -538.0
-7.99607777864 -3.16587115309 -539.0
-6.13652480686 -2.42962204772 -540.0
-5.20674832097 -2.06149749503 -541.0
-3.3471953492 -1.32524838966 -542.0
-0.557865891533 -0.220874731611 -543.0
8.73989896735 3.46037079524 -544.0
11.529228425 4.56474445329 -545.0
11.529228425 4.56474445329 -546.0
12.4590049109 4.93286900597 -547.0
14.3185578827 5.66911811134 -548.0
15.2483343686 6.03724266403 -549.0
17.1078873403 6.7734917694 -550.0
18.0376638262 7.14161632208 -551.0
19.897216798 7.87786542745 -552.0
19.897216798 7.87786542745 -553.0
20.8269932839 8.24598998014 -554.0
21.7567697698 8.61411453282 -555.0
22.6865462557 8.98223908551 -556.0
24.5460992274 9.71848819088 -557.0
24.5460992274 9.71848819088 -558.0
25.4758757133 10.0866127436 -559.0
27.3354286851 10.8228618489 -560.0
27.3354286851 10.8228618489 -561.0
29.1949816569 11.5591109543 -562.0
30.1247581428 11.927235507 -563.0
32.9140876004 13.031609165 -564.0
33.8438640863 13.3997337177 -565.0
34.7736405722 13.7678582704 -566.0
35.7034170581 14.1359828231 -567.0
37.5629700299 14.8722319285 -568.0
38.4927465158 15.2403564811 -569.0
39.4225230017 15.6084810338 -570.0
39.4225230017 15.6084810338 -571.0
39.4225230017 15.6084810338 -572.0
41.2820759734 16.3447301392 -573.0
41.2820759734 16.3447301392 -574.0
42.2118524593 16.7128546919 -575.0
42.2118524593 16.7128546919 -576.0
44.0714054311 17.4491037973 -577.0
45.001181917 17.8172283499 -578.0
45.001181917 17.8172283499 -579.0
45.9309584029 18.1853529026 -580.0
46.8607348888 18.5534774553 -581.0
46.8607348888 18.5534774553 -582.0
46.8607348888 18.5534774553 -583.0
47.7905113747 18.921602008 -584.0
47.7905113747 18.921602008 -585.0
48.7202878605 19.2897265607 -586.0
48.7202878605 19.2897265607 -587.0
49.6500643464 19.6578511134 -588.0
49.6500643464 19.6578511134 -589.0
50.5798408323 20.025975666 -590.0
50.5798408323 20.025975666 -591.0
50.5798408323 20.025975666 -592.0
50.5798408323 20.025975666 -593.0
51.5096173182 20.3941002187 -594.0
51.5096173182 20.3941002187 -595.0
51.5096173182 20.3941002187 -596.0
51.5096173182 20.3941002187 -597.0
52.4393938041 20.7622247714 -598.0
52.4393938041 20.7622247714 -599.0
52.4393938041 20.7622247714 -600.0
52.4393938041 20.7622247714 -601.0
52.4393938041 20.7622247714 -602.0
52.4393938041 20.7622247714 -603.0
53.36917029 21.1303493241 -604.0
53.36917029 21.1303493241 -605.0
53.36917029 21.1303493241 -606.0
53.36917029 21.1303493241 -607.0
53.36917029 21.1303493241 -608.0
53.36917029 21.1303493241 -609.0
53.36917029 21.1303493241 -610.0
53.36917029 21.1303493241 -611.0
53.36917029 21.1303493241 -612.0
53.36917029 21.1303493241 -613.0
54.2989467759 21.4984738768 -614.0
54.2989467759 21.4984738768 -615.0
54.2989467759 21.4984738768 -616.0
54.2989467759 21.4984738768 -617.0
54.2989467759 21.4984738768 -618.0
54.2989467759 21.4984738768 -619.0
54.2989467759 21.4984738768 -620.0
54.2989467759 21.4984738768 -621.0
54.2989467759 21.4984738768 -622.0
54.2989467759 21.4984738768 -623.0
54.2989467759 21.4984738768 -624.0
54.2989467759 21.4984738768 -625.0
54.2989467759 21.4984738768 -626.0
54.2989467759 21.4984738768 -627.0
54.2989467759 21.4984738768 -628.0
54.2989467759 21.4984738768 -629.0
54.2989467759 21.4984738768 -630.0
54.2989467759 21.4984738768 -631.0
53.36917029 21.1303493241 -632.0
53.36917029 21.1303493241 -633.0
53.36917029 21.1303493241 -634.0
53.36917029 21.1303493241 -635.0
53.36917029 21.1303493241 -636.0
53.36917029 21.1303493241 -637.0
53.36917029 21.1303493241 -638.0
53.36917029 21.1303493241 -639.0
52.4393938041 20.7622247714 -640.0
52.4393938041 20.7622247714 -641.0
52.4393938041 20.7622247714 -642.0
52.4393938041 20.7622247714 -643.0
52.4393938041 20.7622247714 -644.0
52.4393938041 20.7622247714 -645.0
52.4393938041 20.7622247714 -646.0
52.4393938041 20.7622247714 -647.0
52.4393938041 20.7622247714 -648.0
51.5096173182 20.3941002187 -649.0
51.5096173182 20.3941002187 -650.0
51.5096173182 20.3941002187 -651.0
50.5798408323 20.025975666 -652.0
50.5798408323 20.025975666 -653.0
50.5798408323 20.025975666 -654.0
50.5798408323 20.025975666 -655.0
49.6500643464 19.6578511134 -656.0
49.6500643464 19.6578511134 -657.0
49.6500643464 19.6578511134 -658.0
48.7202878605 19.2897265607 -659.0
48.7202878605 19.2897265607 -660.0
48.7202878605 19.2897265607 -661.0
47.7905113747 18.921602008 -662.0
47.7905113747 18.921602008 -663.0
46.8607348888 18.5534774553 -664.0
46.8607348888 18.5534774553 -665.0
46.8607348888 18.5534774553 -666.0
46.8607348888 18.5534774553 -667.0
45.9309584029 18.1853529026 -668.0
45.001181917 17.8172283499 -669.0
45.001181917 17.8172283499 -670.0
44.0714054311 17.4491037973 -671.0
43.1416289452 17.0809792446 -672.0
42.2118524593 16.7128546919 -673.0
42.2118524593 16.7128546919 -674.0
41.2820759734 16.3447301392 -675.0
31.9843111146 12.6634846124 -682.0
31.0545346287 12.2953600597 -683.0
31.0545346287 12.2953600597 -684.0
31.0545346287 12.2953600597 -685.0
30.1247581428 11.927235507 -686.0
31.0545346287 12.2953600597 -687.0
30.1247581428 11.927235507 -688.0
30.1247581428 11.927235507 -689.0
30.1247581428 11.927235507 -690.0
30.1247581428 11.927235507 -691.0
30.1247581428 11.927235507 -692.0
30.1247581428 11.927235507 -693.0
30.1247581428 11.927235507 -694.0
29.1949816569 11.5591109543 -695.0
29.1949816569 11.5591109543 -696.0
29.1949816569 11.5591109543 -697.0
29.1949816569 11.5591109543 -698.0
29.1949816569 11.5591109543 -699.0
29.1949816569 11.5591109543 -700.0
30.1247581428 11.927235507 -701.0
29.1949816569 11.5591109543 -702.0
29.1949816569 11.5591109543 -703.0
29.1949816569 11.5591109543 -704.0
29.1949816569 11.5591109543 -705.0
29.1949816569 11.5591109543 -706.0
27.3354286851 10.8228618489 -707.0
-27.0091641888 -9.40558609672 -397.0
-24.1760350781 -8.41898615651 -398.0
-24.1760350781 -8.41898615651 -399.0
-23.2316587078 -8.09011950977 -400.0
-23.2316587078 -8.09011950977 -401.0
-22.2872823376 -7.76125286303 -402.0
-21.3429059674 -7.43238621629 -403.0
-20.3985295971 -7.10351956955 -404.0
-18.5097768567 -6.44578627608 -405.0
-18.5097768567 -6.44578627608 -406.0
-17.5654004864 -6.11691962934 -407.0
-15.6766477459 -5.45918633586 -408.0
-14.7322713757 -5.13031968912 -409.0
-13.7878950055 -4.80145304238 -410.0
-13.7878950055 -4.80145304238 -411.0
-12.8435186352 -4.47258639564 -412.0
-11.899142265 -4.14371974891 -413.0
-10.9547658948 -3.81485310217 -414.0
-10.9547658948 -3.81485310217 -415.0
-10.0103895245 -3.48598645543 -416.0
-10.0103895245 -3.48598645543 -417.0
-9.06601315428 -3.15711980869 -418.0
-9.06601315428 -3.15711980869 -419.0
-8.12163678404 -2.82825316195 -420.0
-7.1772604138 -2.49938651521 -421.0
-7.1772604138 -2.49938651521 -422.0
-7.1772604138 -2.49938651521 -423.0
-6.23288404357 -2.17051986847 -424.0
-5.28850767333 -1.84165322174 -425.0
-5.28850767333 -1.84165322174 -426.0
-5.28850767333 -1.84165322174 -427.0
-4.34413130309 -1.512786575 -428.0
-4.34413130309 -1.512786575 -429.0
-3.39975493285 -1.18391992826 -430.0
-4.34413130309 -1.512786575 -431.0
-3.39975493285 -1.18391992826 -432.0
-3.39975493285 -1.18391992826 -433.0
-3.39975493285 -1.18391992826 -434.0
-2.45537856262 -0.85505328152 -435.0
-2.45537856262 -0.85505328152 -436.0
-2.45537856262 -0.85505328152 -437.0
-2.45537856262 -0.85505328152 -438.0
-2.45537856262 -0.85505328152 -439.0
-1.51100219238 -0.526186634782 -440.0
-1.51100219238 -0.526186634782 -441.0
-0.566625822143 -0.197319988043 -442.0
-0.566625822143 -0.197319988043 -443.0
-0.566625822143 -0.197319988043 -444.0
-0.566625822143 -0.197319988043 -445.0
-0.566625822143 -0.197319988043 -446.0
-0.566625822143 -0.197319988043 -447.0
-0.566625822143 -0.197319988043 -448.0
-0.566625822143 -0.197319988043 -449.0
0.377750548095 0.131546658695 -450.0
0.377750548095 0.131546658695 -451.0
0.377750548095 0.131546658695 -452.0
0.377750548095 0.131546658695 -453.0
0.377750548095 0.131546658695 -454.0
0.377750548095 0.131546658695 -455.0
0.377750548095 0.131546658695 -456.0
0.377750548095 0.131546658695 -457.0
0.377750548095 0.131546658695 -458.0
0.377750548095 0.131546658695 -459.0
0.377750548095 0.131546658695 -460.0
0.377750548095 0.131546658695 -461.0
0.377750548095 0.131546658695 -462.0
1.32212691833 0.460413305434 -463.0
1.32212691833 0.460413305434 -464.0
1.32212691833 0.460413305434 -465.0
1.32212691833 0.460413305434 -466.0
1.32212691833 0.460413305434 -467.0
1.32212691833 0.460413305434 -468.0
0.377750548095 0.131546658695 -469.0
0.377750548095 0.131546658695 -470.0
1.32212691833 0.460413305434 -471.0
1.32212691833 0.460413305434 -472.0
1.32212691833 0.460413305434 -473.0
0.377750548095 0.131546658695 -474.0
0.377750548095 0.131546658695 -475.0
0.377750548095 0.131546658695 -476.0
0.377750548095 0.131546658695 -477.0
-0.566625822143 -0.197319988043 -478.0
-0.566625822143 -0.197319988043 -479.0
-0.566625822143 -0.197319988043 -480.0
-0.566625822143 -0.197319988043 -481.0
-0.566625822143 -0.197319988043 -482.0
-0.566625822143 -0.197319988043 -483.0
-1.51100219238 -0.526186634782 -484.0
-1.51100219238 -0.526186634782 -485.0
-1.51100219238 -0.526186634782 -486.0
-1.51100219238 -0.526186634782 -487.0
-1.51100219238 -0.526186634782 -488.0
-1.51100219238 -0.526186634782 -489.0
-1.51100219238 -0.526186634782 -490.0
-2.45537856262 -0.85505328152 -491.0
-3.39975493285 -1.18391992826 -492.0
-3.39975493285 -1.18391992826 -493.0
-3.39975493285 -1.18391992826 -494.0
-3.39975493285 -1.18391992826 -495.0
-4.34413130309 -1.512786575 -496.0
-4.34413130309 -1.512786575 -497.0
-4.34413130309 -1.512786575 -498.0
-5.28850767333 -1.84165322174 -499.0
-5.28850767333 -1.84165322174 -500.0
-5.28850767333 -1.84165322174 -501.0
-5.28850767333 -1.84165322174 -502.0
-6.23288404357 -2.17051986847 -503.0
-6.23288404357 -2.17051986847 -504.0
-6.23288404357 -2.17051986847 -505.0
-7.1772604138 -2.49938651521 -506.0
-7.1772604138 -2.49938651521 -507.0
-8.12163678404 -2.82825316195 -508.0
-9.06601315428 -3.15711980869 -509.0
-9.06601315428 -3.15711980869 -510.0
-9.06601315428 -3.15711980869 -511.0
-10.0103895245 -3.48598645543 -512.0
-10.0103895245 -3.48598645543 -513.0
-10.9547658948 -3.81485310217 -514.0
-10.9547658948 -3.81485310217 -515.0
-11.899142265 -4.14371974891 -516.0
-11.899142265 -4.14371974891 -517.0
-12.8435186352 -4.47258639564 -518.0
-12.8435186352 -4.47258639564 -519.0
-13.7878950055 -4.80145304238 -520.0
-14.7322713757 -5.13031968912 -521.0
-14.7322713757 -5.13031968912 -522.0
-14.7322713757 -5.13031968912 -523.0
-15.6766477459 -5.45918633586 -524.0
-15.6766477459 -5.45918633586 -525.0
-10.0103895245 -3.48598645543 -537.0
-9.06601315428 -3.15711980869 -538.0
-8.12163678404 -2.82825316195 -539.0
-7.1772604138 -2.49938651521 -540.0
-5.28850767333 -1.84165322174 -541.0
-3.39975493285 -1.18391992826 -542.0
-2.45537856262 -0.85505328152 -543.0
8.87713788023 3.09134647934 -544.0
10.7658906207 3.74907977282 -545.0
11.7102669909 4.07794641956 -546.0
14.5433961017 5.06454635977 -547.0
15.4877724719 5.39341300651 -548.0
17.3765252124 6.05114629999 -549.0
18.3209015826 6.38001294673 -550.0
19.2652779528 6.70887959347 -551.0
20.2096543231 7.03774624021 -552.0
21.1540306933 7.36661288694 -553.0
22.0984070636 7.69547953368 -554.0
23.0427834338 8.02434618042 -555.0
23.987159804 8.35321282716 -556.0
24.9315361743 8.6820794739 -557.0
26.8202889147 9.33981276738 -558.0
26.8202889147 9.33981276738 -559.0
28.7090416552 9.99754606085 -560.0
29.6534180255 10.3264127076 -561.0
30.5977943957 10.6552793543 -562.0
31.5421707659 10.9841460011 -563.0
33.4309235064 11.6418792945 -564.0
35.3196762469 12.299612588 -565.0
36.2640526171 12.6284792348 -566.0
37.2084289874 12.9573458815 -567.0
38.1528053576 13.2862125282 -568.0
39.0971817278 13.615079175 -569.0
40.0415580981 13.9439458217 -570.0
40.0415580981 13.9439458217 -571.0
40.9859344683 14.2728124685 -572.0
40.9859344683 14.2728124685 -573.0
42.8746872088 14.9305457619 -574.0
43.819063579 15.2594124087 -575.0
45.7078163195 15.9171457021 -576.0
45.7078163195 15.9171457021 -577.0
45.7078163195 15.9171457021 -578.0
47.59656906 16.5748789956 -579.0
47.59656906 16.5748789956 -580.0
48.5409454302 16.9037456424 -581.0
49.4853218004 17.2326122891 -582.0
49.4853218004 17.2326122891 -583.0
50.4296981707 17.5614789358 -584.0
50.4296981707 17.5614789358 -585.0
50.4296981707 17.5614789358 -586.0
51.3740745409 17.8903455826 -587.0
51.3740745409 17.8903455826 -588.0
51.3740745409 17.8903455826 -589.0
52.3184509112 18.2192122293 -590.0
51.3740745409 17.8903455826 -591.0
52.3184509112 18.2192122293 -592.0
53.2628272814 18.5480788761 -593.0
52.3184509112 18.2192122293 -594.0
53.2628272814 18.5480788761 -595.0
53.2628272814 18.5480788761 -596.0
53.2628272814 18.5480788761 -597.0
53.2628272814 18.5480788761 -598.0
53.2628272814 18.5480788761 -599.0
53.2628272814 18.5480788761 -600.0
54.2072036516 18.8769455228 -601.0
54.2072036516 18.8769455228 -602.0
54.2072036516 18.8769455228 -603.0
55.1515800219 19.2058121695 -604.0
55.1515800219 19.2058121695 -605.0
55.1515800219 19.2058121695 -606.0
55.1515800219 19.2058121695 -607.0
55.1515800219 19.2058121695 -608.0
54.2072036516 18.8769455228 -609.0
55.1515800219 19.2058121695 -610.0
55.1515800219 19.2058121695 -611.0
55.1515800219 19.2058121695 -612.0
55.1515800219 19.2058121695 -613.0
55.1515800219 19.2058121695 -614.0
55.1515800219 19.2058121695 -615.0
55.1515800219 19.2058121695 -616.0
55.1515800219 19.2058121695 -617.0
55.1515800219 19.2058121695 -618.0
55.1515800219 19.2058121695 -619.0
55.1515800219 19.2058121695 -620.0
55.1515800219 19.2058121695 -621.0
55.1515800219 19.2058121695 -622.0
55.1515800219 19.2058121695 -623.0
55.1515800219 19.2058121695 -624.0
55.1515800219 19.2058121695 -625.0
55.1515800219 19.2058121695 -626.0
55.1515800219 19.2058121695 -627.0
55.1515800219 19.2058121695 -628.0
55.1515800219 19.2058121695 -629.0
55.1515800219 19.2058121695 -630.0
55.1515800219 19.2058121695 -631.0
55.1515800219 19.2058121695 -632.0
55.1515800219 19.2058121695 -633.0
55.1515800219 19.2058121695 -634.0
55.1515800219 19.2058121695 -635.0
55.1515800219 19.2058121695 -636.0
55.1515800219 19.2058121695 -637.0
55.1515800219 19.2058121695 -638.0
55.1515800219 19.2058121695 -639.0
54.2072036516 18.8769455228 -640.0
54.2072036516 18.8769455228 -641.0
54.2072036516 18.8769455228 -642.0
54.2072036516 18.8769455228 -643.0
54.2072036516 18.8769455228 -644.0
54.2072036516 18.8769455228 -645.0
53.2628272814 18.5480788761 -646.0
53.2628272814 18.5480788761 -647.0
53.2628272814 18.5480788761 -648.0
53.2628272814 18.5480788761 -649.0
53.2628272814 18.5480788761 -650.0
53.2628272814 18.5480788761 -651.0
53.2628272814 18.5480788761 -652.0
53.2628272814 18.5480788761 -653.0
52.3184509112 18.2192122293 -654.0
52.3184509112 18.2192122293 -655.0
51.3740745409 17.8903455826 -656.0
51.3740745409 17.8903455826 -657.0
51.3740745409 17.8903455826 -658.0
50.4296981707 17.5614789358 -659.0
50.4296981707 17.5614789358 -660.0
49.4853218004 17.2326122891 -661.0
49.4853218004 17.2326122891 -662.0
49.4853218004 17.2326122891 -663.0
48.5409454302 16.9037456424 -664.0
48.5409454302 16.9037456424 -665.0
47.59656906 16.5748789956 -666.0
47.59656906 16.5748789956 -667.0
46.6521926897 16.2460123489 -668.0
46.6521926897 16.2460123489 -669.0
45.7078163195 15.9171457021 -670.0
45.7078163195 15.9171457021 -671.0
43.819063579 15.2594124087 -672.0
43.819063579 15.2594124087 -673.0
43.819063579 15.2594124087 -674.0
42.8746872088 14.9305457619 -675.0
31.5421707659 10.9841460011 -682.0
31.5421707659 10.9841460011 -683.0
31.5421707659 10.9841460011 -684.0
31.5421707659 10.9841460011 -685.0
31.5421707659 10.9841460011 -686.0
31.5421707659 10.9841460011 -687.0
30.5977943957 10.6552793543 -688.0
30.5977943957 10.6552793543 -689.0
30.5977943957 10.6552793543 -690.0
30.5977943957 10.6552793543 -691.0
30.5977943957 10.6552793543 -692.0
30.5977943957 10.6552793543 -693.0
30.5977943957 10.6552793543 -694.0
30.5977943957 10.6552793543 -695.0
30.5977943957 10.6552793543 -696.0
30.5977943957 10.6552793543 -697.0
30.5977943957 10.6552793543 -698.0
30.5977943957 10.6552793543 -699.0
30.5977943957 10.6552793543 -700.0
30.5977943957 10.6552793543 -701.0
30.5977943957 10.6552793543 -702.0
30.5977943957 10.6552793543 -703.0
30.5977943957 10.6552793543 -704.0
29.6534180255 10.3264127076 -705.0
29.6534180255 10.3264127076 -706.0
29.6534180255 10.3264127076 -707.0
-27.3793376294 -8.26630939261 -395.0
-25.4646986344 -7.68824579872 -396.0
-25.4646986344 -7.68824579872 -397.0
-24.5073791368 -7.39921400178 -398.0
-24.5073791368 -7.39921400178 -399.0
-23.5500596393 -7.11018220483 -400.0
-22.5927401418 -6.82115040789 -401.0
-22.5927401418 -6.82115040789 -402.0
-21.6354206442 -6.53211861095 -403.0
-20.6781011467 -6.243086814 -404.0
-18.7634621516 -5.66502322011 -405.0
-17.8061426541 -5.37599142317 -406.0
-16.8488231566 -5.08695962622 -407.0
-14.9341841615 -4.50889603233 -408.0
-14.9341841615 -4.50889603233 -409.0
-13.976864664 -4.21986423539 -410.0
-13.0195451664 -3.93083243844 -411.0
-13.0195451664 -3.93083243844 -412.0
-12.0622256689 -3.6418006415 -413.0
-11.1049061714 -3.35276884456 -414.0
-10.1475866738 -3.06373704761 -415.0
-10.1475866738 -3.06373704761 -416.0
-9.19026717631 -2.77470525067 -417.0
-9.19026717631 -2.77470525067 -418.0
-8.23294767878 -2.48567345372 -419.0
-8.23294767878 -2.48567345372 -420.0
-7.27562818124 -2.19664165678 -421.0
-7.27562818124 -2.19664165678 -422.0
-6.31830868371 -1.90760985983 -423.0
-6.31830868371 -1.90760985983 -424.0
-6.31830868371 -1.90760985983 -425.0
-5.36098918618 -1.61857806289 -426.0
-5.36098918618 -1.61857806289 -427.0
-4.40366968865 -1.32954626594 -428.0
-4.40366968865 -1.32954626594 -429.0
-4.40366968865 -1.32954626594 -430.0
-4.40366968865 -1.32954626594 -431.0
-3.44635019112 -1.040514469 -432.0
-3.44635019112 -1.040514469 -433.0
-2.48903069358 -0.751482672056 -434.0
-2.48903069358 -0.751482672056 -435.0
-2.48903069358 -0.751482672056 -436.0
-2.48903069358 -0.751482672056 -437.0
-2.48903069358 -0.751482672056 -438.0
-2.48903069358 -0.751482672056 -439.0
-1.53171119605 -0.462450875111 -440.0
-0.574391698519 -0.173419078167 -441.0
-0.574391698519 -0.173419078167 -442.0
-0.574391698519 -0.173419078167 -443.0
-0.574391698519 -0.173419078167 -444.0
-0.574391698519 -0.173419078167 -445.0
-0.574391698519 -0.173419078167 -446.0
-0.574391698519 -0.173419078167 -447.0
-0.574391698519 -0.173419078167 -448.0
-0.574391698519 -0.173419078167 -449.0
-0.574391698519 -0.173419078167 -450.0
-0.574391698519 -0.173419078167 -451.0
-0.574391698519 -0.173419078167 -452.0
0.382927799013 0.115612718778 -453.0
0.382927799013 0.115612718778 -454.0
0.382927799013 0.115612718778 -455.0
0.382927799013 0.115612718778 -456.0
1.34024729654 0.404644515722 -457.0
1.34024729654 0.404644515722 -458.0
1.34024729654 0.404644515722 -459.0
1.34024729654 0.404644515722 -460.0
0.382927799013 0.115612718778 -461.0
0.382927799013 0.115612718778 -462.0
0.382927799013 0.115612718778 -463.0
0.382927799013 0.115612718778 -464.0
0.382927799013 0.115612718778 -465.0
1.34024729654 0.404644515722 -466.0
1.34024729654 0.404644515722 -467.0
1.34024729654 0.404644515722 -468.0
1.34024729654 0.404644515722 -469.0
1.34024729654 0.404644515722 -470.0
1.34024729654 0.404644515722 -471.0
0.382927799013 0.115612718778 -472.0
0.382927799013 0.115612718778 -473.0
-0.574391698519 -0.173419078167 -474.0
-0.574391698519 -0.173419078167 -475.0
-0.574391698519 -0.173419078167 -476.0
0.382927799013 0.115612718778 -477.0
0.382927799013 0.115612718778 -478.0
-0.574391698519 -0.173419078167 -479.0
-0.574391698519 -0.173419078167 -480.0
-0.574391698519 -0.173419078167 -481.0
-0.574391698519 -0.173419078167 -482.0
-0.574391698519 -0.173419078167 -483.0
-1.53171119605 -0.462450875111 -484.0
-1.53171119605 -0.462450875111 -485.0
-1.53171119605 -0.462450875111 -486.0
-1.53171119605 -0.462450875111 -487.0
-1.53171119605 -0.462450875111 -488.0
-1.53171119605 -0.462450875111 -489.0
-1.53171119605 -0.462450875111 -490.0
-2.48903069358 -0.751482672056 -491.0
-2.48903069358 -0.751482672056 -492.0
-2.48903069358 -0.751482672056 -493.0
-3.44635019112 -1.040514469 -494.0
-3.44635019112 -1.040514469 -495.0
-3.44635019112 -1.040514469 -496.0
-4.40366968865 -1.32954626594 -497.0
-4.40366968865 -1.32954626594 -498.0
-5.36098918618 -1.61857806289 -499.0
-5.36098918618 -1.61857806289 -500.0
-5.36098918618 -1.61857806289 -501.0
-6.31830868371 -1.90760985983 -502.0
-6.31830868371 -1.90760985983 -503.0
-7.27562818124 -2.19664165678 -504.0
-7.27562818124 -2.19664165678 -505.0
-7.27562818124 -2.19664165678 -506.0
-8.23294767878 -2.48567345372 -507.0
-8.23294767878 -2.48567345372 -508.0
-8.23294767878 -2.48567345372 -509.0
-9.19026717631 -2.77470525067 -510.0
-9.19026717631 -2.77470525067 -511.0
-10.1475866738 -3.06373704761 -512.0
-10.1475866738 -3.06373704761 -513.0
-10.1475866738 -3.06373704761 -514.0
-11.1049061714 -3.35276884456 -515.0
-11.1049061714 -3.35276884456 -516.0
-12.0622256689 -3.6418006415 -517.0
-13.0195451664 -3.93083243844 -518.0
-13.0195451664 -3.93083243844 -519.0
-13.976864664 -4.21986423539 -520.0
-14.9341841615 -4.50889603233 -521.0
-14.9341841615 -4.50889603233 -522.0
-14.9341841615 -4.50889603233 -523.0
-15.891503659 -4.79792782928 -524.0
-15.891503659 -4.79792782928 -525.0
-15.891503659 -4.79792782928 -526.0
-15.891503659 -4.79792782928 -527.0
-15.891503659 -4.79792782928 -528.0
-13.976864664 -4.21986423539 -536.0
-13.0195451664 -3.93083243844 -537.0
-12.0622256689 -3.6418006415 -538.0
-9.19026717631 -2.77470525067 -539.0
-8.23294767878 -2.48567345372 -540.0
-4.40366968865 -1.32954626594 -541.0
-3.44635019112 -1.040514469 -542.0
-2.48903069358 -0.751482672056 -543.0
11.8707617694 3.58399428211 -544.0
11.8707617694 3.58399428211 -545.0
12.8280812669 3.87302607906 -546.0
13.7854007645 4.162057876 -547.0
15.7000397595 4.74012146989 -548.0
16.6573592571 5.02915326683 -549.0
18.5719982521 5.60721686072 -550.0
19.5293177497 5.89624865767 -551.0
20.4866372472 6.18528045461 -552.0
22.4012762423 6.7633440485 -553.0
23.3585957398 7.05237584545 -554.0
24.3159152373 7.34140764239 -555.0
25.2732347348 7.63043943933 -556.0
27.1878737299 8.20850303322 -557.0
27.1878737299 8.20850303322 -558.0
29.102512725 8.78656662711 -559.0
30.0598322225 9.07559842406 -560.0
31.01715172 9.364630221 -561.0
31.9744712176 9.65366201795 -562.0
32.9317907151 9.94269381489 -563.0
33.8891102126 10.2317256118 -564.0
35.8037492077 10.8097892057 -565.0
36.7610687052 11.0988210027 -566.0
37.7183882028 11.3878527996 -567.0
38.6757077003 11.6768845966 -568.0
39.6330271978 11.9659163935 -569.0
40.5903466954 12.2549481904 -570.0
41.5476661929 12.5439799874 -571.0
42.5049856904 12.8330117843 -572.0
43.462305188 13.1220435813 -573.0
44.4196246855 13.4110753782 -574.0
45.376944183 13.7001071752 -575.0
46.3342636806 13.9891389721 -576.0
47.2915831781 14.2781707691 -577.0
48.2489026756 14.567202566 -578.0
49.2062221731 14.8562343629 -579.0
50.1635416707 15.1452661599 -580.0
50.1635416707 15.1452661599 -581.0
50.1635416707 15.1452661599 -582.0
50.1635416707 15.1452661599 -583.0
51.1208611682 15.4342979568 -584.0
52.0781806657 15.7233297538 -585.0
52.0781806657 15.7233297538 -586.0
52.0781806657 15.7233297538 -587.0
52.0781806657 15.7233297538 -588.0
53.0355001633 16.0123615507 -589.0
53.0355001633 16.0123615507 -590.0
53.9928196608 16.3013933477 -591.0
53.9928196608 16.3013933477 -592.0
53.9928196608 16.3013933477 -593.0
53.9928196608 16.3013933477 -594.0
54.9501391583 16.5904251446 -595.0
54.9501391583 16.5904251446 -596.0
54.9501391583 16.5904251446 -597.0
55.9074586559 16.8794569416 -598.0
55.9074586559 16.8794569416 -599.0
55.9074586559 16.8794569416 -600.0
55.9074586559 16.8794569416 -601.0
55.9074586559 16.8794569416 -602.0
55.9074586559 16.8794569416 -603.0
55.9074586559 16.8794569416 -604.0
55.9074586559 16.8794569416 -605.0
55.9074586559 16.8794569416 -606.0
56.8647781534 17.1684887385 -607.0
57.8220976509 17.4575205354 -608.0
56.8647781534 17.1684887385 -609.0
56.8647781534 17.1684887385 -610.0
56.8647781534 17.1684887385 -611.0
56.8647781534 17.1684887385 -612.0
56.8647781534 17.1684887385 -613.0
56.8647781534 17.1684887385 -614.0
56.8647781534 17.1684887385 -615.0
56.8647781534 17.1684887385 -616.0
56.8647781534 17.1684887385 -617.0
56.8647781534 17.1684887385 -618.0
56.8647781534 17.1684887385 -619.0
56.8647781534 17.1684887385 -620.0
56.8647781534 17.1684887385 -621.0
57.8220976509 17.4575205354 -622.0
57.8220976509 17.4575205354 -623.0
57.8220976509 17.4575205354 -624.0
57.8220976509 17.4575205354 -625.0
57.8220976509 17.4575205354 -626.0
56.8647781534 17.1684887385 -627.0
56.8647781534 17.1684887385 -628.0
56.8647781534 17.1684887385 -629.0
56.8647781534 17.1684887385 -630.0
55.9074586559 16.8794569416 -631.0
56.8647781534 17.1684887385 -632.0
56.8647781534 17.1684887385 -633.0
56.8647781534 17.1684887385 -634.0
56.8647781534 17.1684887385 -635.0
55.9074586559 16.8794569416 -636.0
56.8647781534 17.1684887385 -637.0
56.8647781534 17.1684887385 -638.0
56.8647781534 17.1684887385 -639.0
56.8647781534 17.1684887385 -640.0
55.9074586559 16.8794569416 -641.0
55.9074586559 16.8794569416 -642.0
55.9074586559 16.8794569416 -643.0
55.9074586559 16.8794569416 -644.0
55.9074586559 16.8794569416 -645.0
55.9074586559 16.8794569416 -646.0
