-2.62428705872,-2.46436958134,-748.0
-1.8953184313,-1.77982247541,-749.0
-2.62428705872,-2.46436958134,-750.0
-1.8953184313,-1.77982247541,-751.0
1.74952470581,1.64291305423,-762.0
2.47849333323,2.32746016016,-763.0
2.47849333323,2.32746016016,-764.0
2.47849333323,2.32746016016,-765.0
2.47849333323,2.32746016016,-766.0
2.47849333323,2.32746016016,-767.0
2.47849333323,2.32746016016,-768.0
2.47849333323,2.32746016016,-769.0
3.20746196065,3.01200726609,-770.0
3.20746196065,3.01200726609,-771.0
3.20746196065,3.01200726609,-772.0
3.93643058808,3.69655437201,-773.0
3.93643058808,3.69655437201,-774.0
4.6653992155,4.38110147794,-775.0
5.39436784292,5.06564858387,-789.0
5.39436784292,5.06564858387,-790.0
5.39436784292,5.06564858387,-791.0
5.39436784292,5.06564858387,-792.0
5.39436784292,5.06564858387,-793.0
5.39436784292,5.06564858387,-794.0
5.39436784292,5.06564858387,-795.0
5.39436784292,5.06564858387,-796.0
5.39436784292,5.06564858387,-797.0
4.6653992155,4.38110147794,-798.0
4.6653992155,4.38110147794,-799.0
3.93643058808,3.69655437201,-820.0
3.93643058808,3.69655437201,-821.0
3.93643058808,3.69655437201,-822.0
3.93643058808,3.69655437201,-823.0
3.93643058808,3.69655437201,-824.0
3.93643058808,3.69655437201,-825.0
3.93643058808,3.69655437201,-826.0
4.6653992155,4.38110147794,-827.0
4.6653992155,4.38110147794,-828.0
4.6653992155,4.38110147794,-829.0
4.6653992155,4.38110147794,-830.0
4.6653992155,4.38110147794,-831.0
4.6653992155,4.38110147794,-832.0
4.6653992155,4.38110147794,-833.0
4.6653992155,4.38110147794,-834.0
3.93643058808,3.69655437201,-835.0
3.93643058808,3.69655437201,-836.0
3.93643058808,3.69655437201,-837.0
3.93643058808,3.69655437201,-838.0
3.93643058808,3.69655437201,-839.0
3.93643058808,3.69655437201,-840.0
3.93643058808,3.69655437201,-841.0
3.93643058808,3.69655437201,-842.0
3.93643058808,3.69655437201,-843.0
3.20746196065,3.01200726609,-844.0
3.20746196065,3.01200726609,-845.0
3.20746196065,3.01200726609,-846.0
3.20746196065,3.01200726609,-847.0
3.20746196065,3.01200726609,-848.0
3.20746196065,3.01200726609,-849.0
3.20746196065,3.01200726609,-850.0
2.47849333323,2.32746016016,-851.0
2.47849333323,2.32746016016,-852.0
1.74952470581,1.64291305423,-853.0
1.74952470581,1.64291305423,-854.0
1.74952470581,1.64291305423,-855.0
1.02055607839,0.9583659483,-856.0
0.291587450969,0.273818842371,-857.0
-0.437381176453,-0.410728263557,-858.0
-0.437381176453,-0.410728263557,-859.0
-1.16634980387,-1.09527536949,-860.0
-1.16634980387,-1.09527536949,-861.0
-1.16634980387,-1.09527536949,-862.0
-1.16634980387,-1.09527536949,-863.0
-1.16634980387,-1.09527536949,-864.0
-1.16634980387,-1.09527536949,-865.0
-1.16634980387,-1.09527536949,-866.0
-1.8953184313,-1.77982247541,-867.0
-1.16634980387,-1.09527536949,-868.0
-1.16634980387,-1.09527536949,-869.0
-0.437381176453,-0.410728263557,-870.0
-0.437381176453,-0.410728263557,-871.0
-0.437381176453,-0.410728263557,-872.0
-0.437381176453,-0.410728263557,-873.0
-0.437381176453,-0.410728263557,-874.0
-1.16634980387,-1.09527536949,-875.0
-1.16634980387,-1.09527536949,-876.0
-1.16634980387,-1.09527536949,-877.0
-1.16634980387,-1.09527536949,-878.0
-1.16634980387,-1.09527536949,-879.0
-1.16634980387,-1.09527536949,-880.0
-1.16634980387,-1.09527536949,-881.0
-1.8953184313,-1.77982247541,-882.0
-1.8953184313,-1.77982247541,-883.0
-1.8953184313,-1.77982247541,-884.0
-1.8953184313,-1.77982247541,-885.0
-2.62428705872,-2.46436958134,-886.0
-2.62428705872,-2.46436958134,-887.0
-3.35325568614,-3.14891668727,-888.0
-3.35325568614,-3.14891668727,-889.0
-3.35325568614,-3.14891668727,-890.0
-3.35325568614,-3.14891668727,-891.0
-4.08222431356,-3.8334637932,-892.0
-4.08222431356,-3.8334637932,-893.0
-4.08222431356,-3.8334637932,-894.0
-4.81119294098,-4.51801089913,-895.0
-4.81119294098,-4.51801089913,-896.0
-5.5401615684,-5.20255800506,-897.0
-5.5401615684,-5.20255800506,-898.0
-5.5401615684,-5.20255800506,-899.0
-5.5401615684,-5.20255800506,-900.0
-6.26913019582,-5.88710511099,-901.0
-146.859824073,-121.493012446,-5.0
-146.859824073,-121.493012446,-6.0
-146.859824073,-121.493012446,-7.0
-146.859824073,-121.493012446,-8.0
-146.859824073,-121.493012446,-9.0
-146.859824073,-121.493012446,-10.0
-146.859824073,-121.493012446,-11.0
-146.859824073,-121.493012446,-12.0
-146.859824073,-121.493012446,-13.0
-146.859824073,-121.493012446,-14.0
-146.859824073,-121.493012446,-15.0
-146.859824073,-121.493012446,-16.0
-146.859824073,-121.493012446,-17.0
-146.859824073,-121.493012446,-18.0
-146.859824073,-121.493012446,-19.0
-146.08931083,-120.855588456,-20.0
-146.08931083,-120.855588456,-21.0
-146.08931083,-120.855588456,-22.0
-146.08931083,-120.855588456,-23.0
-146.859824073,-121.493012446,-24.0
-146.859824073,-121.493012446,-25.0
-146.859824073,-121.493012446,-26.0
-146.859824073,-121.493012446,-27.0
-146.859824073,-121.493012446,-28.0
-146.859824073,-121.493012446,-29.0
-146.859824073,-121.493012446,-30.0
-146.08931083,-120.855588456,-31.0
-146.08931083,-120.855588456,-32.0
-146.08931083,-120.855588456,-33.0
-146.08931083,-120.855588456,-34.0
-146.859824073,-121.493012446,-35.0
-146.08931083,-120.855588456,-36.0
-146.08931083,-120.855588456,-37.0
-146.08931083,-120.855588456,-38.0
-146.08931083,-120.855588456,-39.0
-146.08931083,-120.855588456,-40.0
-146.08931083,-120.855588456,-41.0
-146.08931083,-120.855588456,-42.0
-146.08931083,-120.855588456,-43.0
-146.08931083,-120.855588456,-44.0
-146.08931083,-120.855588456,-45.0
-146.08931083,-120.855588456,-46.0
-146.08931083,-120.855588456,-47.0
-146.08931083,-120.855588456,-48.0
-146.08931083,-120.855588456,-49.0
-146.08931083,-120.855588456,-50.0
-146.08931083,-120.855588456,-51.0
-146.08931083,-120.855588456,-52.0
-146.08931083,-120.855588456,-53.0
-146.08931083,-120.855588456,-54.0
-146.08931083,-120.855588456,-55.0
-146.08931083,-120.855588456,-56.0
-146.08931083,-120.855588456,-57.0
-146.08931083,-120.855588456,-58.0
-146.08931083,-120.855588456,-59.0
-146.08931083,-120.855588456,-60.0
-146.08931083,-120.855588456,-61.0
-146.08931083,-120.855588456,-62.0
-146.08931083,-120.855588456,-63.0
-146.08931083,-120.855588456,-64.0
-146.08931083,-120.855588456,-65.0
-146.08931083,-120.855588456,-66.0
-146.08931083,-120.855588456,-67.0
-146.08931083,-120.855588456,-68.0
-146.08931083,-120.855588456,-69.0
-146.08931083,-120.855588456,-70.0
-146.08931083,-120.855588456,-71.0
-146.08931083,-120.855588456,-72.0
-146.08931083,-120.855588456,-73.0
-146.08931083,-120.855588456,-74.0
-146.08931083,-120.855588456,-75.0
-146.08931083,-120.855588456,-76.0
-146.08931083,-120.855588456,-77.0
-146.08931083,-120.855588456,-78.0
-146.08931083,-120.855588456,-79.0
-146.08931083,-120.855588456,-80.0
-146.08931083,-120.855588456,-81.0
-146.08931083,-120.855588456,-82.0
-146.08931083,-120.855588456,-83.0
-146.08931083,-120.855588456,-84.0
-146.08931083,-120.855588456,-85.0
-146.08931083,-120.855588456,-86.0
-145.318797588,-120.218164467,-87.0
-145.318797588,-120.218164467,-88.0
-146.08931083,-120.855588456,-89.0
-146.08931083,-120.855588456,-90.0
-146.08931083,-120.855588456,-91.0
-145.318797588,-120.218164467,-92.0
-145.318797588,-120.218164467,-93.0
-145.318797588,-120.218164467,-94.0
-145.318797588,-120.218164467,-95.0
-145.318797588,-120.218164467,-96.0
-145.318797588,-120.218164467,-97.0
-145.318797588,-120.218164467,-98.0
-145.318797588,-120.218164467,-99.0
-145.318797588,-120.218164467,-100.0
-145.318797588,-120.218164467,-101.0
-145.318797588,-120.218164467,-102.0
-145.318797588,-120.218164467,-103.0
-145.318797588,-120.218164467,-104.0
-145.318797588,-120.218164467,-105.0
-145.318797588,-120.218164467,-106.0
-145.318797588,-120.218164467,-107.0
-145.318797588,-120.218164467,-108.0
-145.318797588,-120.218164467,-109.0
-145.318797588,-120.218164467,-110.0
-145.318797588,-120.218164467,-111.0
-145.318797588,-120.218164467,-112.0
-145.318797588,-120.218164467,-113.0
-145.318797588,-120.218164467,-114.0
-145.318797588,-120.218164467,-115.0
-145.318797588,-120.218164467,-116.0
-145.318797588,-120.218164467,-117.0
-138.384178403,-114.481348559,-290.0
-139.154691645,-115.118772549,-294.0
-139.154691645,-115.118772549,-295.0
-138.384178403,-114.481348559,-296.0
-138.384178403,-114.481348559,-297.0
-139.154691645,-115.118772549,-298.0
-138.384178403,-114.481348559,-299.0
-139.154691645,-115.118772549,-300.0
-139.154691645,-115.118772549,-301.0
-138.384178403,-114.481348559,-302.0
-138.384178403,-114.481348559,-303.0
-136.843151917,-113.206500579,-407.0
-6.62641388787,-5.48184631184,-697.0
-7.39692713065,-6.11927030159,-698.0
-7.39692713065,-6.11927030159,-699.0
-7.39692713065,-6.11927030159,-700.0
-7.39692713065,-6.11927030159,-701.0
-7.39692713065,-6.11927030159,-702.0
-2.00333443122,-1.65730237335,-727.0
-2.77384767399,-2.2947263631,-728.0
-1.23282118844,-1.0198783836,-729.0
-1.23282118844,-1.0198783836,-730.0
-1.23282118844,-1.0198783836,-731.0
-1.23282118844,-1.0198783836,-732.0
-1.23282118844,-1.0198783836,-733.0
-1.23282118844,-1.0198783836,-734.0
-1.23282118844,-1.0198783836,-735.0
-2.00333443122,-1.65730237335,-736.0
-2.00333443122,-1.65730237335,-737.0
-2.00333443122,-1.65730237335,-738.0
-2.00333443122,-1.65730237335,-739.0
-2.00333443122,-1.65730237335,-740.0
-2.00333443122,-1.65730237335,-741.0
2.61974502544,2.16724156515,-755.0
2.61974502544,2.16724156515,-756.0
2.61974502544,2.16724156515,-757.0
3.39025826821,2.80466555489,-758.0
3.39025826821,2.80466555489,-759.0
4.16077151099,3.44208954464,-760.0
4.16077151099,3.44208954464,-761.0
4.16077151099,3.44208954464,-762.0
4.16077151099,3.44208954464,-763.0
4.16077151099,3.44208954464,-764.0
4.16077151099,3.44208954464,-765.0
4.16077151099,3.44208954464,-766.0
4.16077151099,3.44208954464,-767.0
4.93128475377,4.07951353439,-768.0
4.93128475377,4.07951353439,-769.0
4.93128475377,4.07951353439,-770.0
4.93128475377,4.07951353439,-771.0
5.70179799654,4.71693752414,-772.0
5.70179799654,4.71693752414,-773.0
5.70179799654,4.71693752414,-775.0
5.70179799654,4.71693752414,-776.0
5.70179799654,4.71693752414,-777.0
6.47231123932,5.35436151389,-778.0
7.24282448209,5.99178550364,-779.0
6.47231123932,5.35436151389,-780.0
6.47231123932,5.35436151389,-781.0
6.47231123932,5.35436151389,-782.0
6.47231123932,5.35436151389,-783.0
6.47231123932,5.35436151389,-784.0
6.47231123932,5.35436151389,-785.0
6.47231123932,5.35436151389,-786.0
7.24282448209,5.99178550364,-787.0
7.24282448209,5.99178550364,-788.0
7.24282448209,5.99178550364,-789.0
7.24282448209,5.99178550364,-790.0
6.47231123932,5.35436151389,-791.0
6.47231123932,5.35436151389,-792.0
6.47231123932,5.35436151389,-793.0
6.47231123932,5.35436151389,-794.0
6.47231123932,5.35436151389,-795.0
6.47231123932,5.35436151389,-801.0
5.70179799654,4.71693752414,-802.0
5.70179799654,4.71693752414,-803.0
5.70179799654,4.71693752414,-804.0
5.70179799654,4.71693752414,-805.0
5.70179799654,4.71693752414,-806.0
5.70179799654,4.71693752414,-807.0
5.70179799654,4.71693752414,-808.0
5.70179799654,4.71693752414,-809.0
6.47231123932,5.35436151389,-810.0
5.70179799654,4.71693752414,-811.0
5.70179799654,4.71693752414,-812.0
5.70179799654,4.71693752414,-813.0
5.70179799654,4.71693752414,-814.0
5.70179799654,4.71693752414,-815.0
4.93128475377,4.07951353439,-816.0
4.93128475377,4.07951353439,-817.0
4.16077151099,3.44208954464,-818.0
4.16077151099,3.44208954464,-819.0
3.39025826821,2.80466555489,-820.0
3.39025826821,2.80466555489,-821.0
2.61974502544,2.16724156515,-822.0
2.61974502544,2.16724156515,-823.0
2.61974502544,2.16724156515,-824.0
3.39025826821,2.80466555489,-825.0
3.39025826821,2.80466555489,-826.0
3.39025826821,2.80466555489,-827.0
3.39025826821,2.80466555489,-828.0
3.39025826821,2.80466555489,-829.0
3.39025826821,2.80466555489,-830.0
3.39025826821,2.80466555489,-831.0
3.39025826821,2.80466555489,-832.0
3.39025826821,2.80466555489,-833.0
3.39025826821,2.80466555489,-834.0
3.39025826821,2.80466555489,-835.0
4.16077151099,3.44208954464,-836.0
4.16077151099,3.44208954464,-837.0
4.16077151099,3.44208954464,-838.0
4.16077151099,3.44208954464,-839.0
4.16077151099,3.44208954464,-840.0
4.16077151099,3.44208954464,-841.0
4.16077151099,3.44208954464,-842.0
3.39025826821,2.80466555489,-843.0
3.39025826821,2.80466555489,-844.0
3.39025826821,2.80466555489,-845.0
2.61974502544,2.16724156515,-846.0
2.61974502544,2.16724156515,-847.0
2.61974502544,2.16724156515,-848.0
1.84923178266,1.5298175754,-849.0
1.07871853989,0.892393585648,-850.0
0.30820529711,0.254969595899,-851.0
0.30820529711,0.254969595899,-852.0
-0.462307945665,-0.382454393849,-853.0
-0.462307945665,-0.382454393849,-854.0
-0.462307945665,-0.382454393849,-855.0
-0.462307945665,-0.382454393849,-856.0
-0.462307945665,-0.382454393849,-857.0
-0.462307945665,-0.382454393849,-858.0
-0.462307945665,-0.382454393849,-859.0
-0.462307945665,-0.382454393849,-860.0
-0.462307945665,-0.382454393849,-861.0
-0.462307945665,-0.382454393849,-862.0
-0.462307945665,-0.382454393849,-863.0
0.30820529711,0.254969595899,-864.0
0.30820529711,0.254969595899,-865.0
0.30820529711,0.254969595899,-866.0
0.30820529711,0.254969595899,-867.0
0.30820529711,0.254969595899,-868.0
0.30820529711,0.254969595899,-869.0
0.30820529711,0.254969595899,-870.0
0.30820529711,0.254969595899,-871.0
0.30820529711,0.254969595899,-872.0
0.30820529711,0.254969595899,-873.0
0.30820529711,0.254969595899,-874.0
-0.462307945665,-0.382454393849,-875.0
-0.462307945665,-0.382454393849,-876.0
-0.462307945665,-0.382454393849,-877.0
-0.462307945665,-0.382454393849,-878.0
-0.462307945665,-0.382454393849,-879.0
-1.23282118844,-1.0198783836,-880.0
-1.23282118844,-1.0198783836,-881.0
-1.23282118844,-1.0198783836,-882.0
-1.23282118844,-1.0198783836,-883.0
-1.23282118844,-1.0198783836,-884.0
-1.23282118844,-1.0198783836,-885.0
-1.23282118844,-1.0198783836,-886.0
-2.00333443122,-1.65730237335,-887.0
-2.00333443122,-1.65730237335,-888.0
-2.00333443122,-1.65730237335,-889.0
-2.00333443122,-1.65730237335,-890.0
-2.00333443122,-1.65730237335,-891.0
-2.00333443122,-1.65730237335,-892.0
-2.00333443122,-1.65730237335,-893.0
-2.00333443122,-1.65730237335,-894.0
-2.77384767399,-2.2947263631,-895.0
-2.77384767399,-2.2947263631,-896.0
-2.77384767399,-2.2947263631,-897.0
-2.77384767399,-2.2947263631,-898.0
-2.77384767399,-2.2947263631,-899.0
-3.54436091677,-2.93215035284,-900.0
-3.54436091677,-2.93215035284,-901.0
-3.54436091677,-2.93215035284,-902.0
-3.54436091677,-2.93215035284,-903.0
-3.54436091677,-2.93215035284,-904.0
-4.31487415954,-3.56957434259,-905.0
-4.31487415954,-3.56957434259,-906.0
-4.31487415954,-3.56957434259,-907.0
-5.08538740232,-4.20699833234,-908.0
-5.08538740232,-4.20699833234,-909.0
-154.198639128,-112.031869087,-5.0
-154.198639128,-112.031869087,-6.0
-154.198639128,-112.031869087,-7.0
-154.198639128,-112.031869087,-8.0
-154.198639128,-112.031869087,-9.0
-154.198639128,-112.031869087,-10.0
-153.389622133,-111.444083835,-11.0
-154.198639128,-112.031869087,-12.0
-154.198639128,-112.031869087,-13.0
-154.198639128,-112.031869087,-14.0
-154.198639128,-112.031869087,-15.0
-153.389622133,-111.444083835,-16.0
-154.198639128,-112.031869087,-17.0
-154.198639128,-112.031869087,-18.0
-154.198639128,-112.031869087,-19.0
-154.198639128,-112.031869087,-20.0
-154.198639128,-112.031869087,-21.0
-154.198639128,-112.031869087,-22.0
-154.198639128,-112.031869087,-23.0
-154.198639128,-112.031869087,-24.0
-154.198639128,-112.031869087,-25.0
-154.198639128,-112.031869087,-26.0
-154.198639128,-112.031869087,-27.0
-154.198639128,-112.031869087,-28.0
-154.198639128,-112.031869087,-29.0
-154.198639128,-112.031869087,-30.0
-154.198639128,-112.031869087,-31.0
-153.389622133,-111.444083835,-32.0
-153.389622133,-111.444083835,-33.0
-153.389622133,-111.444083835,-34.0
-153.389622133,-111.444083835,-35.0
-153.389622133,-111.444083835,-36.0
-153.389622133,-111.444083835,-37.0
-153.389622133,-111.444083835,-38.0
-153.389622133,-111.444083835,-39.0
-153.389622133,-111.444083835,-40.0
-153.389622133,-111.444083835,-41.0
-153.389622133,-111.444083835,-42.0
-153.389622133,-111.444083835,-43.0
-153.389622133,-111.444083835,-44.0
-153.389622133,-111.444083835,-45.0
-153.389622133,-111.444083835,-46.0
-153.389622133,-111.444083835,-47.0
-153.389622133,-111.444083835,-48.0
-153.389622133,-111.444083835,-49.0
-153.389622133,-111.444083835,-50.0
-153.389622133,-111.444083835,-51.0
-153.389622133,-111.444083835,-52.0
-153.389622133,-111.444083835,-53.0
-153.389622133,-111.444083835,-54.0
-153.389622133,-111.444083835,-55.0
-153.389622133,-111.444083835,-56.0
-153.389622133,-111.444083835,-57.0
-153.389622133,-111.444083835,-58.0
-153.389622133,-111.444083835,-59.0
-153.389622133,-111.444083835,-60.0
-153.389622133,-111.444083835,-61.0
-153.389622133,-111.444083835,-62.0
-153.389622133,-111.444083835,-63.0
-153.389622133,-111.444083835,-64.0
-153.389622133,-111.444083835,-65.0
-153.389622133,-111.444083835,-66.0
-153.389622133,-111.444083835,-67.0
-153.389622133,-111.444083835,-68.0
-153.389622133,-111.444083835,-69.0
-153.389622133,-111.444083835,-70.0
-153.389622133,-111.444083835,-71.0
-153.389622133,-111.444083835,-72.0
-153.389622133,-111.444083835,-73.0
-153.389622133,-111.444083835,-74.0
-153.389622133,-111.444083835,-75.0
-153.389622133,-111.444083835,-76.0
-153.389622133,-111.444083835,-77.0
-153.389622133,-111.444083835,-78.0
-153.389622133,-111.444083835,-79.0
-153.389622133,-111.444083835,-80.0
-153.389622133,-111.444083835,-81.0
-153.389622133,-111.444083835,-82.0
-153.389622133,-111.444083835,-83.0
-153.389622133,-111.444083835,-84.0
-153.389622133,-111.444083835,-85.0
-153.389622133,-111.444083835,-86.0
-153.389622133,-111.444083835,-87.0
-152.580605139,-110.856298582,-88.0
-153.389622133,-111.444083835,-89.0
-153.389622133,-111.444083835,-90.0
-153.389622133,-111.444083835,-91.0
-152.580605139,-110.856298582,-92.0
-152.580605139,-110.856298582,-93.0
-152.580605139,-110.856298582,-94.0
-152.580605139,-110.856298582,-95.0
-152.580605139,-110.856298582,-96.0
-152.580605139,-110.856298582,-97.0
-152.580605139,-110.856298582,-98.0
-152.580605139,-110.856298582,-99.0
-152.580605139,-110.856298582,-100.0
-152.580605139,-110.856298582,-101.0
-152.580605139,-110.856298582,-102.0
-152.580605139,-110.856298582,-103.0
-152.580605139,-110.856298582,-104.0
-152.580605139,-110.856298582,-105.0
-152.580605139,-110.856298582,-106.0
-152.580605139,-110.856298582,-107.0
-152.580605139,-110.856298582,-108.0
-152.580605139,-110.856298582,-109.0
-152.580605139,-110.856298582,-110.0
-152.580605139,-110.856298582,-111.0
-152.580605139,-110.856298582,-112.0
-152.580605139,-110.856298582,-113.0
-152.580605139,-110.856298582,-114.0
-152.580605139,-110.856298582,-115.0
-152.580605139,-110.856298582,-116.0
-151.771588145,-110.26851333,-117.0
-146.108469184,-106.154016564,-280.0
-145.29945219,-105.566231312,-281.0
-145.29945219,-105.566231312,-297.0
-6.14852915725,-4.46716791742,-694.0
-5.33951216287,-3.87938266513,-695.0
-6.14852915725,-4.46716791742,-696.0
-5.33951216287,-3.87938266513,-697.0
-5.33951216287,-3.87938266513,-698.0
-5.33951216287,-3.87938266513,-699.0
-5.33951216287,-3.87938266513,-700.0
-6.14852915725,-4.46716791742,-701.0
-6.14852915725,-4.46716791742,-702.0
-0.485410196625,-0.352671151375,-719.0
-1.294427191,-0.940456403668,-720.0
-0.485410196625,-0.352671151375,-721.0
-0.485410196625,-0.352671151375,-722.0
-1.294427191,-0.940456403668,-723.0
-0.485410196625,-0.352671151375,-724.0
-0.485410196625,-0.352671151375,-725.0
-0.485410196625,-0.352671151375,-726.0
-0.485410196625,-0.352671151375,-727.0
-0.485410196625,-0.352671151375,-728.0
-0.485410196625,-0.352671151375,-729.0
-0.485410196625,-0.352671151375,-730.0
-0.485410196625,-0.352671151375,-731.0
-0.485410196625,-0.352671151375,-732.0
-1.294427191,-0.940456403668,-733.0
2.75065778087,1.99846985779,-747.0
3.55967477525,2.58625511009,-748.0
3.55967477525,2.58625511009,-749.0
4.36869176962,3.17404036238,-750.0
4.36869176962,3.17404036238,-751.0
4.36869176962,3.17404036238,-752.0
4.36869176962,3.17404036238,-753.0
5.177708764,3.76182561467,-754.0
5.177708764,3.76182561467,-755.0
5.177708764,3.76182561467,-756.0
5.177708764,3.76182561467,-757.0
5.177708764,3.76182561467,-758.0
5.98672575837,4.34961086696,-759.0
5.98672575837,4.34961086696,-760.0
5.98672575837,4.34961086696,-761.0
5.98672575837,4.34961086696,-762.0
5.98672575837,4.34961086696,-763.0
5.98672575837,4.34961086696,-764.0
5.98672575837,4.34961086696,-765.0
6.79574275275,4.93739611926,-766.0
6.79574275275,4.93739611926,-767.0
7.60475974712,5.52518137155,-768.0
7.60475974712,5.52518137155,-769.0
7.60475974712,5.52518137155,-770.0
7.60475974712,5.52518137155,-771.0
7.60475974712,5.52518137155,-772.0
7.60475974712,5.52518137155,-773.0
7.60475974712,5.52518137155,-774.0
8.4137767415,6.11296662384,-775.0
8.4137767415,6.11296662384,-776.0
8.4137767415,6.11296662384,-777.0
8.4137767415,6.11296662384,-778.0
8.4137767415,6.11296662384,-779.0
8.4137767415,6.11296662384,-780.0
8.4137767415,6.11296662384,-781.0
8.4137767415,6.11296662384,-782.0
7.60475974712,5.52518137155,-783.0
7.60475974712,5.52518137155,-784.0
8.4137767415,6.11296662384,-785.0
7.60475974712,5.52518137155,-786.0
8.4137767415,6.11296662384,-787.0
7.60475974712,5.52518137155,-791.0
7.60475974712,5.52518137155,-792.0
7.60475974712,5.52518137155,-793.0
6.79574275275,4.93739611926,-794.0
6.79574275275,4.93739611926,-795.0
7.60475974712,5.52518137155,-796.0
6.79574275275,4.93739611926,-797.0
6.79574275275,4.93739611926,-798.0
6.79574275275,4.93739611926,-799.0
7.60475974712,5.52518137155,-800.0
7.60475974712,5.52518137155,-801.0
7.60475974712,5.52518137155,-802.0
6.79574275275,4.93739611926,-803.0
7.60475974712,5.52518137155,-804.0
7.60475974712,5.52518137155,-805.0
7.60475974712,5.52518137155,-806.0
8.4137767415,6.11296662384,-807.0
8.4137767415,6.11296662384,-808.0
8.4137767415,6.11296662384,-809.0
8.4137767415,6.11296662384,-810.0
8.4137767415,6.11296662384,-811.0
8.4137767415,6.11296662384,-812.0
8.4137767415,6.11296662384,-813.0
8.4137767415,6.11296662384,-814.0
7.60475974712,5.52518137155,-815.0
7.60475974712,5.52518137155,-816.0
7.60475974712,5.52518137155,-817.0
6.79574275275,4.93739611926,-818.0
6.79574275275,4.93739611926,-819.0
6.79574275275,4.93739611926,-820.0
5.98672575837,4.34961086696,-821.0
5.98672575837,4.34961086696,-822.0
5.177708764,3.76182561467,-823.0
5.177708764,3.76182561467,-824.0
5.177708764,3.76182561467,-825.0
4.36869176962,3.17404036238,-826.0
4.36869176962,3.17404036238,-827.0
3.55967477525,2.58625511009,-828.0
3.55967477525,2.58625511009,-829.0
2.75065778087,1.99846985779,-830.0
1.9416407865,1.4106846055,-831.0
1.9416407865,1.4106846055,-832.0
1.9416407865,1.4106846055,-833.0
1.9416407865,1.4106846055,-834.0
1.9416407865,1.4106846055,-835.0
1.9416407865,1.4106846055,-836.0
1.9416407865,1.4106846055,-837.0
1.9416407865,1.4106846055,-838.0
1.9416407865,1.4106846055,-839.0
1.9416407865,1.4106846055,-840.0
1.9416407865,1.4106846055,-841.0
1.9416407865,1.4106846055,-842.0
0.32360679775,0.235114100917,-849.0
0.32360679775,0.235114100917,-850.0
0.32360679775,0.235114100917,-851.0
0.32360679775,0.235114100917,-852.0
0.32360679775,0.235114100917,-853.0
0.32360679775,0.235114100917,-854.0
-0.485410196625,-0.352671151375,-855.0
0.32360679775,0.235114100917,-856.0
0.32360679775,0.235114100917,-857.0
1.13262379212,0.822899353209,-858.0
1.13262379212,0.822899353209,-859.0
1.13262379212,0.822899353209,-860.0
1.13262379212,0.822899353209,-861.0
1.13262379212,0.822899353209,-862.0
1.13262379212,0.822899353209,-863.0
1.13262379212,0.822899353209,-864.0
1.13262379212,0.822899353209,-865.0
1.13262379212,0.822899353209,-866.0
1.13262379212,0.822899353209,-867.0
1.13262379212,0.822899353209,-868.0
1.13262379212,0.822899353209,-869.0
0.32360679775,0.235114100917,-870.0
0.32360679775,0.235114100917,-871.0
1.13262379212,0.822899353209,-872.0
0.32360679775,0.235114100917,-873.0
0.32360679775,0.235114100917,-874.0
0.32360679775,0.235114100917,-875.0
-0.485410196625,-0.352671151375,-876.0
-0.485410196625,-0.352671151375,-877.0
-0.485410196625,-0.352671151375,-878.0
0.32360679775,0.235114100917,-879.0
-0.485410196625,-0.352671151375,-880.0
-0.485410196625,-0.352671151375,-881.0
-0.485410196625,-0.352671151375,-882.0
-0.485410196625,-0.352671151375,-883.0
-0.485410196625,-0.352671151375,-884.0
-0.485410196625,-0.352671151375,-885.0
-1.294427191,-0.940456403668,-886.0
-1.294427191,-0.940456403668,-887.0
-1.294427191,-0.940456403668,-888.0
-1.294427191,-0.940456403668,-889.0
-2.10344418537,-1.52824165596,-890.0
-2.10344418537,-1.52824165596,-891.0
-2.10344418537,-1.52824165596,-892.0
-2.10344418537,-1.52824165596,-893.0
-2.10344418537,-1.52824165596,-894.0
-2.10344418537,-1.52824165596,-895.0
-2.10344418537,-1.52824165596,-896.0
-2.10344418537,-1.52824165596,-897.0
-2.10344418537,-1.52824165596,-898.0
-2.10344418537,-1.52824165596,-899.0
-2.10344418537,-1.52824165596,-900.0
-2.91246117975,-2.11602690825,-901.0
-2.91246117975,-2.11602690825,-902.0
-2.91246117975,-2.11602690825,-903.0
-3.72147817412,-2.70381216055,-904.0
-3.72147817412,-2.70381216055,-905.0
-4.5304951685,-3.29159741284,-906.0
-4.5304951685,-3.29159741284,-907.0
-4.5304951685,-3.29159741284,-908.0
-3.72147817412,-2.70381216055,-909.0
-4.5304951685,-3.29159741284,-910.0
-4.5304951685,-3.29159741284,-911.0
-5.33951216287,-3.87938266513,-912.0
-5.33951216287,-3.87938266513,-913.0
-7.766563146,-5.64273842201,-919.0
-7.766563146,-5.64273842201,-920.0
-7.766563146,-5.64273842201,-921.0
-160.928902601,-102.128587123,-5.0
-160.928902601,-102.128587123,-6.0
-160.928902601,-102.128587123,-7.0
-160.928902601,-102.128587123,-8.0
-160.928902601,-102.128587123,-9.0
-160.928902601,-102.128587123,-10.0
-160.928902601,-102.128587123,-11.0
-160.928902601,-102.128587123,-12.0
-160.928902601,-102.128587123,-13.0
-160.928902601,-102.128587123,-14.0
-160.928902601,-102.128587123,-15.0
-160.928902601,-102.128587123,-16.0
-160.928902601,-102.128587123,-17.0
-160.928902601,-102.128587123,-18.0
-160.928902601,-102.128587123,-19.0
-160.084574675,-101.592760328,-20.0
-160.928902601,-102.128587123,-21.0
-160.928902601,-102.128587123,-22.0
-160.928902601,-102.128587123,-23.0
-160.928902601,-102.128587123,-24.0
-160.928902601,-102.128587123,-25.0
-160.928902601,-102.128587123,-26.0
-160.928902601,-102.128587123,-27.0
-160.928902601,-102.128587123,-28.0
-160.928902601,-102.128587123,-29.0
-160.928902601,-102.128587123,-30.0
-160.928902601,-102.128587123,-31.0
-160.084574675,-101.592760328,-32.0
-160.084574675,-101.592760328,-33.0
-160.084574675,-101.592760328,-34.0
-160.928902601,-102.128587123,-35.0
-160.084574675,-101.592760328,-36.0
-160.084574675,-101.592760328,-37.0
-160.084574675,-101.592760328,-38.0
-160.084574675,-101.592760328,-39.0
-160.084574675,-101.592760328,-40.0
-160.084574675,-101.592760328,-41.0
-160.084574675,-101.592760328,-42.0
-160.084574675,-101.592760328,-43.0
-160.084574675,-101.592760328,-44.0
-160.084574675,-101.592760328,-45.0
-160.084574675,-101.592760328,-46.0
-160.084574675,-101.592760328,-47.0
-160.084574675,-101.592760328,-48.0
-160.084574675,-101.592760328,-49.0
-160.084574675,-101.592760328,-50.0
-160.084574675,-101.592760328,-51.0
-160.084574675,-101.592760328,-52.0
-160.084574675,-101.592760328,-53.0
-160.084574675,-101.592760328,-54.0
-160.084574675,-101.592760328,-55.0
-160.084574675,-101.592760328,-56.0
-160.084574675,-101.592760328,-57.0
-160.084574675,-101.592760328,-58.0
-160.084574675,-101.592760328,-59.0
-160.084574675,-101.592760328,-60.0
-160.084574675,-101.592760328,-61.0
-160.084574675,-101.592760328,-62.0
-160.084574675,-101.592760328,-63.0
-160.084574675,-101.592760328,-64.0
-160.084574675,-101.592760328,-65.0
-160.084574675,-101.592760328,-66.0
-160.084574675,-101.592760328,-67.0
-160.084574675,-101.592760328,-68.0
-160.084574675,-101.592760328,-69.0
-160.084574675,-101.592760328,-70.0
-160.084574675,-101.592760328,-71.0
-160.084574675,-101.592760328,-72.0
-160.084574675,-101.592760328,-73.0
-160.084574675,-101.592760328,-74.0
-160.084574675,-101.592760328,-75.0
-160.084574675,-101.592760328,-76.0
-160.084574675,-101.592760328,-77.0
-160.084574675,-101.592760328,-78.0
-160.084574675,-101.592760328,-79.0
-160.084574675,-101.592760328,-80.0
-160.084574675,-101.592760328,-81.0
-160.084574675,-101.592760328,-82.0
-160.084574675,-101.592760328,-83.0
-160.084574675,-101.592760328,-84.0
-160.084574675,-101.592760328,-85.0
-160.084574675,-101.592760328,-86.0
-159.24024675,-101.056933533,-87.0
-159.24024675,-101.056933533,-88.0
-160.084574675,-101.592760328,-89.0
-160.084574675,-101.592760328,-90.0
-160.084574675,-101.592760328,-91.0
-159.24024675,-101.056933533,-92.0
-159.24024675,-101.056933533,-93.0
-159.24024675,-101.056933533,-94.0
-159.24024675,-101.056933533,-95.0
-159.24024675,-101.056933533,-96.0
-159.24024675,-101.056933533,-97.0
-159.24024675,-101.056933533,-98.0
-159.24024675,-101.056933533,-99.0
-159.24024675,-101.056933533,-100.0
-159.24024675,-101.056933533,-101.0
-159.24024675,-101.056933533,-102.0
-159.24024675,-101.056933533,-103.0
-159.24024675,-101.056933533,-104.0
-159.24024675,-101.056933533,-105.0
-159.24024675,-101.056933533,-106.0
-159.24024675,-101.056933533,-107.0
-159.24024675,-101.056933533,-108.0
-159.24024675,-101.056933533,-109.0
-159.24024675,-101.056933533,-110.0
-159.24024675,-101.056933533,-111.0
-159.24024675,-101.056933533,-112.0
-159.24024675,-101.056933533,-113.0
-159.24024675,-101.056933533,-114.0
-159.24024675,-101.056933533,-115.0
-159.24024675,-101.056933533,-116.0
-158.395918824,-100.521106738,-117.0
-152.485623346,-96.7703191732,-279.0
-151.64129542,-96.2344923782,-291.0
-151.64129542,-96.2344923782,-292.0
-151.64129542,-96.2344923782,-293.0
-152.485623346,-96.7703191732,-294.0
-152.485623346,-96.7703191732,-295.0
-152.485623346,-96.7703191732,-296.0
-151.64129542,-96.2344923782,-297.0
-151.64129542,-96.2344923782,-298.0
-151.64129542,-96.2344923782,-299.0
-1.3509246808,-0.857322871966,-729.0
-1.3509246808,-0.857322871966,-730.0
-1.3509246808,-0.857322871966,-731.0
-1.3509246808,-0.857322871966,-732.0
-1.3509246808,-0.857322871966,-733.0
8.78101042522,5.57259866778,-783.0
8.78101042522,5.57259866778,-784.0
7.93668249972,5.0367718728,-785.0
7.93668249972,5.0367718728,-786.0
7.93668249972,5.0367718728,-787.0
8.78101042522,5.57259866778,-788.0
8.78101042522,5.57259866778,-789.0
8.78101042522,5.57259866778,-790.0
9.62533835072,6.10842546276,-791.0
9.62533835072,6.10842546276,-792.0
9.62533835072,6.10842546276,-793.0
9.62533835072,6.10842546276,-794.0
9.62533835072,6.10842546276,-795.0
9.62533835072,6.10842546276,-796.0
9.62533835072,6.10842546276,-797.0
9.62533835072,6.10842546276,-798.0
9.62533835072,6.10842546276,-799.0
9.62533835072,6.10842546276,-800.0
8.78101042522,5.57259866778,-801.0
8.78101042522,5.57259866778,-802.0
8.78101042522,5.57259866778,-803.0
8.78101042522,5.57259866778,-804.0
7.93668249972,5.0367718728,-805.0
7.93668249972,5.0367718728,-806.0
7.93668249972,5.0367718728,-807.0
7.93668249972,5.0367718728,-808.0
7.93668249972,5.0367718728,-809.0
7.93668249972,5.0367718728,-810.0
8.78101042522,5.57259866778,-811.0
8.78101042522,5.57259866778,-812.0
8.78101042522,5.57259866778,-813.0
8.78101042522,5.57259866778,-814.0
8.78101042522,5.57259866778,-815.0
8.78101042522,5.57259866778,-816.0
8.78101042522,5.57259866778,-817.0
7.93668249972,5.0367718728,-818.0
7.93668249972,5.0367718728,-819.0
7.93668249972,5.0367718728,-820.0
7.09235457422,4.50094507782,-821.0
7.09235457422,4.50094507782,-822.0
7.09235457422,4.50094507782,-823.0
7.93668249972,5.0367718728,-824.0
7.09235457422,4.50094507782,-825.0
7.09235457422,4.50094507782,-826.0
6.24802664871,3.96511828284,-827.0
6.24802664871,3.96511828284,-828.0
5.40369872321,3.42929148787,-829.0
5.40369872321,3.42929148787,-830.0
5.40369872321,3.42929148787,-831.0
5.40369872321,3.42929148787,-832.0
4.55937079771,2.89346469289,-833.0
4.55937079771,2.89346469289,-834.0
3.71504287221,2.35763789791,-835.0
3.71504287221,2.35763789791,-836.0
2.87071494671,1.82181110293,-837.0
2.87071494671,1.82181110293,-838.0
1.1820590957,0.750157512971,-839.0
1.1820590957,0.750157512971,-840.0
1.1820590957,0.750157512971,-841.0
1.1820590957,0.750157512971,-842.0
1.1820590957,0.750157512971,-843.0
1.1820590957,0.750157512971,-844.0
1.1820590957,0.750157512971,-845.0
1.1820590957,0.750157512971,-846.0
2.0263870212,1.28598430795,-847.0
1.1820590957,0.750157512971,-848.0
2.0263870212,1.28598430795,-849.0
2.0263870212,1.28598430795,-852.0
2.0263870212,1.28598430795,-853.0
2.0263870212,1.28598430795,-854.0
2.0263870212,1.28598430795,-855.0
2.0263870212,1.28598430795,-856.0
2.0263870212,1.28598430795,-857.0
2.0263870212,1.28598430795,-858.0
2.0263870212,1.28598430795,-859.0
2.0263870212,1.28598430795,-860.0
2.0263870212,1.28598430795,-861.0
2.0263870212,1.28598430795,-862.0
2.0263870212,1.28598430795,-863.0
2.0263870212,1.28598430795,-864.0
2.0263870212,1.28598430795,-865.0
2.0263870212,1.28598430795,-866.0
2.0263870212,1.28598430795,-867.0
1.1820590957,0.750157512971,-868.0
1.1820590957,0.750157512971,-869.0
1.1820590957,0.750157512971,-870.0
1.1820590957,0.750157512971,-871.0
1.1820590957,0.750157512971,-872.0
1.1820590957,0.750157512971,-873.0
1.1820590957,0.750157512971,-874.0
0.337731170201,0.214330717992,-875.0
0.337731170201,0.214330717992,-876.0
0.337731170201,0.214330717992,-877.0
0.337731170201,0.214330717992,-878.0
0.337731170201,0.214330717992,-879.0
-0.506596755301,-0.321496076987,-880.0
-0.506596755301,-0.321496076987,-881.0
-1.3509246808,-0.857322871966,-882.0
-1.3509246808,-0.857322871966,-883.0
-1.3509246808,-0.857322871966,-884.0
-1.3509246808,-0.857322871966,-885.0
-1.3509246808,-0.857322871966,-886.0
-1.3509246808,-0.857322871966,-887.0
-1.3509246808,-0.857322871966,-888.0
-1.3509246808,-0.857322871966,-889.0
-1.3509246808,-0.857322871966,-890.0
-1.3509246808,-0.857322871966,-891.0
-1.3509246808,-0.857322871966,-892.0
-1.3509246808,-0.857322871966,-893.0
-1.3509246808,-0.857322871966,-894.0
-1.3509246808,-0.857322871966,-895.0
-2.19525260631,-1.39314966695,-896.0
-3.03958053181,-1.92897646192,-897.0
-3.03958053181,-1.92897646192,-898.0
-3.03958053181,-1.92897646192,-899.0
-3.03958053181,-1.92897646192,-900.0
-3.03958053181,-1.92897646192,-901.0
-3.03958053181,-1.92897646192,-902.0
-3.03958053181,-1.92897646192,-903.0
-3.88390845731,-2.4648032569,-904.0
-3.88390845731,-2.4648032569,-905.0
-3.88390845731,-2.4648032569,-906.0
-3.88390845731,-2.4648032569,-907.0
-3.88390845731,-2.4648032569,-908.0
-3.88390845731,-2.4648032569,-909.0
-3.88390845731,-2.4648032569,-910.0
-4.72823638281,-3.00063005188,-911.0
-4.72823638281,-3.00063005188,-912.0
-5.57256430831,-3.53645684686,-913.0
-7.26122015932,-4.60811043682,-925.0
-7.26122015932,-4.60811043682,-928.0
-7.26122015932,-4.60811043682,-929.0
-7.26122015932,-4.60811043682,-930.0
-7.26122015932,-4.60811043682,-931.0
-7.26122015932,-4.60811043682,-932.0
-7.26122015932,-4.60811043682,-933.0
-7.26122015932,-4.60811043682,-934.0
-8.10554808482,-5.1439372318,-935.0
-167.024053216,-91.8222502838,-5.0
-167.024053216,-91.8222502838,-6.0
-167.024053216,-91.8222502838,-7.0
-167.024053216,-91.8222502838,-8.0
-167.024053216,-91.8222502838,-9.0
-167.024053216,-91.8222502838,-10.0
-166.147746536,-91.3404966097,-11.0
-166.147746536,-91.3404966097,-12.0
-167.024053216,-91.8222502838,-13.0
-167.024053216,-91.8222502838,-14.0
-167.024053216,-91.8222502838,-15.0
-167.024053216,-91.8222502838,-16.0
-167.024053216,-91.8222502838,-17.0
-167.024053216,-91.8222502838,-18.0
-166.147746536,-91.3404966097,-19.0
-166.147746536,-91.3404966097,-20.0
-167.024053216,-91.8222502838,-21.0
-166.147746536,-91.3404966097,-22.0
-166.147746536,-91.3404966097,-23.0
-167.024053216,-91.8222502838,-24.0
-167.024053216,-91.8222502838,-25.0
-166.147746536,-91.3404966097,-26.0
-166.147746536,-91.3404966097,-27.0
-166.147746536,-91.3404966097,-28.0
-166.147746536,-91.3404966097,-29.0
-166.147746536,-91.3404966097,-30.0
-166.147746536,-91.3404966097,-31.0
-166.147746536,-91.3404966097,-32.0
-166.147746536,-91.3404966097,-33.0
-166.147746536,-91.3404966097,-34.0
-166.147746536,-91.3404966097,-35.0
-166.147746536,-91.3404966097,-36.0
-166.147746536,-91.3404966097,-37.0
-166.147746536,-91.3404966097,-38.0
-166.147746536,-91.3404966097,-39.0
-166.147746536,-91.3404966097,-40.0
-166.147746536,-91.3404966097,-41.0
-166.147746536,-91.3404966097,-42.0
-166.147746536,-91.3404966097,-43.0
-166.147746536,-91.3404966097,-44.0
-166.147746536,-91.3404966097,-45.0
-166.147746536,-91.3404966097,-46.0
-166.147746536,-91.3404966097,-47.0
-166.147746536,-91.3404966097,-48.0
-166.147746536,-91.3404966097,-49.0
-166.147746536,-91.3404966097,-50.0
-166.147746536,-91.3404966097,-51.0
-166.147746536,-91.3404966097,-52.0
-166.147746536,-91.3404966097,-53.0
-166.147746536,-91.3404966097,-54.0
-166.147746536,-91.3404966097,-55.0
-166.147746536,-91.3404966097,-56.0
-166.147746536,-91.3404966097,-57.0
-166.147746536,-91.3404966097,-58.0
-166.147746536,-91.3404966097,-59.0
-166.147746536,-91.3404966097,-60.0
-166.147746536,-91.3404966097,-61.0
-166.147746536,-91.3404966097,-62.0
-166.147746536,-91.3404966097,-63.0
-166.147746536,-91.3404966097,-64.0
-166.147746536,-91.3404966097,-65.0
-166.147746536,-91.3404966097,-66.0
-166.147746536,-91.3404966097,-67.0
-166.147746536,-91.3404966097,-68.0
-166.147746536,-91.3404966097,-69.0
-166.147746536,-91.3404966097,-70.0
-166.147746536,-91.3404966097,-71.0
-166.147746536,-91.3404966097,-72.0
-166.147746536,-91.3404966097,-73.0
-166.147746536,-91.3404966097,-74.0
-166.147746536,-91.3404966097,-75.0
-166.147746536,-91.3404966097,-76.0
-166.147746536,-91.3404966097,-77.0
-166.147746536,-91.3404966097,-78.0
-166.147746536,-91.3404966097,-79.0
-166.147746536,-91.3404966097,-80.0
-166.147746536,-91.3404966097,-81.0
-166.147746536,-91.3404966097,-82.0
-166.147746536,-91.3404966097,-83.0
-166.147746536,-91.3404966097,-84.0
-166.147746536,-91.3404966097,-85.0
-165.271439856,-90.8587429356,-86.0
-165.271439856,-90.8587429356,-87.0
-165.271439856,-90.8587429356,-88.0
-165.271439856,-90.8587429356,-89.0
-166.147746536,-91.3404966097,-90.0
-166.147746536,-91.3404966097,-91.0
-165.271439856,-90.8587429356,-92.0
-165.271439856,-90.8587429356,-93.0
-165.271439856,-90.8587429356,-94.0
-165.271439856,-90.8587429356,-95.0
-165.271439856,-90.8587429356,-96.0
-165.271439856,-90.8587429356,-97.0
-165.271439856,-90.8587429356,-98.0
-165.271439856,-90.8587429356,-99.0
-165.271439856,-90.8587429356,-100.0
-165.271439856,-90.8587429356,-101.0
-165.271439856,-90.8587429356,-102.0
-165.271439856,-90.8587429356,-103.0
-165.271439856,-90.8587429356,-104.0
-165.271439856,-90.8587429356,-105.0
-165.271439856,-90.8587429356,-106.0
-165.271439856,-90.8587429356,-107.0
-165.271439856,-90.8587429356,-108.0
-165.271439856,-90.8587429356,-109.0
-165.271439856,-90.8587429356,-110.0
-165.271439856,-90.8587429356,-111.0
-165.271439856,-90.8587429356,-112.0
-165.271439856,-90.8587429356,-113.0
-165.271439856,-90.8587429356,-114.0
-165.271439856,-90.8587429356,-115.0
-165.271439856,-90.8587429356,-116.0
-165.271439856,-90.8587429356,-117.0
-158.260986416,-87.0047135428,-276.0
-158.260986416,-87.0047135428,-277.0
-158.260986416,-87.0047135428,-280.0
-157.384679736,-86.5229598687,-293.0
-157.384679736,-86.5229598687,-294.0
-157.384679736,-86.5229598687,-295.0
-157.384679736,-86.5229598687,-296.0
-158.260986416,-87.0047135428,-297.0
-158.260986416,-87.0047135428,-298.0
-158.260986416,-87.0047135428,-299.0
-157.384679736,-86.5229598687,-300.0
-157.384679736,-86.5229598687,-301.0
-14.5466908887,-7.99711099009,-657.0
-14.5466908887,-7.99711099009,-658.0
-14.5466908887,-7.99711099009,-659.0
-13.6703842087,-7.51535731599,-660.0
-14.5466908887,-7.99711099009,-661.0
-14.5466908887,-7.99711099009,-662.0
-13.6703842087,-7.51535731599,-663.0
-12.7940775286,-7.03360364189,-668.0
-11.9177708486,-6.55184996778,-669.0
-11.9177708486,-6.55184996778,-670.0
-11.9177708486,-6.55184996778,-671.0
-11.9177708486,-6.55184996778,-672.0
-11.9177708486,-6.55184996778,-673.0
-11.9177708486,-6.55184996778,-674.0
-11.9177708486,-6.55184996778,-675.0
-11.9177708486,-6.55184996778,-676.0
-11.9177708486,-6.55184996778,-677.0
-11.9177708486,-6.55184996778,-678.0
-11.0414641686,-6.07009629368,-679.0
-11.0414641686,-6.07009629368,-680.0
-11.0414641686,-6.07009629368,-681.0
-10.1651574885,-5.58834261958,-682.0
-10.1651574885,-5.58834261958,-683.0
-10.1651574885,-5.58834261958,-684.0
-10.1651574885,-5.58834261958,-685.0
-9.28885080846,-5.10658894548,-686.0
-10.1651574885,-5.58834261958,-687.0
-9.28885080846,-5.10658894548,-688.0
-9.28885080846,-5.10658894548,-689.0
-9.28885080846,-5.10658894548,-690.0
-8.41254412842,-4.62483527138,-691.0
-8.41254412842,-4.62483527138,-692.0
-8.41254412842,-4.62483527138,-693.0
-8.41254412842,-4.62483527138,-694.0
-8.41254412842,-4.62483527138,-695.0
-8.41254412842,-4.62483527138,-696.0
-8.41254412842,-4.62483527138,-697.0
-8.41254412842,-4.62483527138,-698.0
-8.41254412842,-4.62483527138,-699.0
-8.41254412842,-4.62483527138,-700.0
-7.53623744838,-4.14308159727,-701.0
-7.53623744838,-4.14308159727,-702.0
-7.53623744838,-4.14308159727,-703.0
-7.53623744838,-4.14308159727,-704.0
-7.53623744838,-4.14308159727,-705.0
-6.65993076833,-3.66132792317,-706.0
-2.27839736811,-1.25255955266,-713.0
-3.15470404816,-1.73431322677,-714.0
-2.27839736811,-1.25255955266,-715.0
-3.15470404816,-1.73431322677,-716.0
-2.27839736811,-1.25255955266,-717.0
-2.27839736811,-1.25255955266,-718.0
-2.27839736811,-1.25255955266,-719.0
-2.27839736811,-1.25255955266,-720.0
-2.27839736811,-1.25255955266,-721.0
-2.27839736811,-1.25255955266,-722.0
-2.27839736811,-1.25255955266,-723.0
-1.40209068807,-0.770805878563,-724.0
-1.40209068807,-0.770805878563,-725.0
-1.40209068807,-0.770805878563,-726.0
-1.40209068807,-0.770805878563,-727.0
-1.40209068807,-0.770805878563,-728.0
-2.27839736811,-1.25255955266,-729.0
-2.27839736811,-1.25255955266,-730.0
-2.27839736811,-1.25255955266,-731.0
-1.40209068807,-0.770805878563,-732.0
-2.27839736811,-1.25255955266,-733.0
-1.40209068807,-0.770805878563,-734.0
-0.525784008026,-0.289052204461,-735.0
-0.525784008026,-0.289052204461,-736.0
0.350522672018,0.192701469641,-737.0
0.350522672018,0.192701469641,-738.0
0.350522672018,0.192701469641,-739.0
4.73205607224,2.60146984015,-747.0
5.60836275228,3.08322351425,-748.0
5.60836275228,3.08322351425,-749.0
5.60836275228,3.08322351425,-750.0
5.60836275228,3.08322351425,-751.0
5.60836275228,3.08322351425,-752.0
5.60836275228,3.08322351425,-753.0
6.48466943232,3.56497718835,-754.0
6.48466943232,3.56497718835,-755.0
6.48466943232,3.56497718835,-756.0
6.48466943232,3.56497718835,-757.0
7.36097611237,4.04673086245,-758.0
7.36097611237,4.04673086245,-759.0
7.36097611237,4.04673086245,-760.0
7.36097611237,4.04673086245,-761.0
7.36097611237,4.04673086245,-762.0
8.23728279241,4.52848453656,-763.0
8.23728279241,4.52848453656,-764.0
8.23728279241,4.52848453656,-765.0
9.11358947246,5.01023821066,-766.0
9.11358947246,5.01023821066,-767.0
9.11358947246,5.01023821066,-768.0
9.11358947246,5.01023821066,-769.0
9.11358947246,5.01023821066,-770.0
9.11358947246,5.01023821066,-771.0
9.9898961525,5.49199188476,-772.0
9.9898961525,5.49199188476,-773.0
9.9898961525,5.49199188476,-774.0
10.8662028325,5.97374555886,-775.0
9.9898961525,5.49199188476,-776.0
9.9898961525,5.49199188476,-777.0
9.9898961525,5.49199188476,-778.0
9.9898961525,5.49199188476,-779.0
9.9898961525,5.49199188476,-780.0
9.9898961525,5.49199188476,-781.0
9.9898961525,5.49199188476,-782.0
9.9898961525,5.49199188476,-783.0
9.11358947246,5.01023821066,-784.0
9.11358947246,5.01023821066,-785.0
9.11358947246,5.01023821066,-786.0
9.11358947246,5.01023821066,-787.0
9.11358947246,5.01023821066,-788.0
9.11358947246,5.01023821066,-789.0
9.9898961525,5.49199188476,-790.0
9.9898961525,5.49199188476,-791.0
9.9898961525,5.49199188476,-792.0
9.9898961525,5.49199188476,-793.0
9.9898961525,5.49199188476,-794.0
9.9898961525,5.49199188476,-795.0
10.8662028325,5.97374555886,-796.0
10.8662028325,5.97374555886,-797.0
11.7425095126,6.45549923296,-798.0
11.7425095126,6.45549923296,-799.0
10.8662028325,5.97374555886,-800.0
10.8662028325,5.97374555886,-801.0
10.8662028325,5.97374555886,-802.0
10.8662028325,5.97374555886,-803.0
10.8662028325,5.97374555886,-804.0
9.9898961525,5.49199188476,-805.0
9.9898961525,5.49199188476,-806.0
10.8662028325,5.97374555886,-807.0
9.9898961525,5.49199188476,-808.0
9.9898961525,5.49199188476,-809.0
9.9898961525,5.49199188476,-810.0
9.9898961525,5.49199188476,-811.0
9.9898961525,5.49199188476,-812.0
9.11358947246,5.01023821066,-813.0
9.11358947246,5.01023821066,-814.0
9.11358947246,5.01023821066,-815.0
9.11358947246,5.01023821066,-816.0
9.11358947246,5.01023821066,-817.0
9.11358947246,5.01023821066,-818.0
9.11358947246,5.01023821066,-819.0
9.11358947246,5.01023821066,-820.0
9.11358947246,5.01023821066,-821.0
8.23728279241,4.52848453656,-822.0
8.23728279241,4.52848453656,-823.0
8.23728279241,4.52848453656,-824.0
8.23728279241,4.52848453656,-825.0
9.11358947246,5.01023821066,-826.0
8.23728279241,4.52848453656,-827.0
9.11358947246,5.01023821066,-828.0
9.11358947246,5.01023821066,-829.0
8.23728279241,4.52848453656,-830.0
9.11358947246,5.01023821066,-831.0
1.22682935206,0.674455143742,-842.0
0.350522672018,0.192701469641,-843.0
1.22682935206,0.674455143742,-844.0
1.22682935206,0.674455143742,-845.0
1.22682935206,0.674455143742,-846.0
1.22682935206,0.674455143742,-847.0
2.10313603211,1.15620881784,-848.0
1.22682935206,0.674455143742,-849.0
1.22682935206,0.674455143742,-850.0
2.10313603211,1.15620881784,-851.0
2.10313603211,1.15620881784,-852.0
2.10313603211,1.15620881784,-853.0
2.97944271215,1.63796249195,-854.0
3.85574939219,2.11971616605,-855.0
2.97944271215,1.63796249195,-856.0
3.85574939219,2.11971616605,-857.0
3.85574939219,2.11971616605,-858.0
2.97944271215,1.63796249195,-859.0
2.97944271215,1.63796249195,-860.0
2.10313603211,1.15620881784,-861.0
2.10313603211,1.15620881784,-862.0
2.10313603211,1.15620881784,-863.0
2.10313603211,1.15620881784,-864.0
2.10313603211,1.15620881784,-865.0
2.97944271215,1.63796249195,-866.0
2.10313603211,1.15620881784,-867.0
2.10313603211,1.15620881784,-868.0
2.10313603211,1.15620881784,-869.0
2.10313603211,1.15620881784,-870.0
2.10313603211,1.15620881784,-871.0
1.22682935206,0.674455143742,-872.0
1.22682935206,0.674455143742,-873.0
1.22682935206,0.674455143742,-874.0
1.22682935206,0.674455143742,-875.0
1.22682935206,0.674455143742,-876.0
1.22682935206,0.674455143742,-877.0
1.22682935206,0.674455143742,-878.0
1.22682935206,0.674455143742,-879.0
0.350522672018,0.192701469641,-880.0
0.350522672018,0.192701469641,-881.0
0.350522672018,0.192701469641,-882.0
0.350522672018,0.192701469641,-883.0
-0.525784008026,-0.289052204461,-884.0
-0.525784008026,-0.289052204461,-885.0
-0.525784008026,-0.289052204461,-886.0
-0.525784008026,-0.289052204461,-887.0
