ply
format ascii 1.0
element vertex 1338
property float x
property float y
property float z
element face 0
element edge 0
end_header
28.2441532859 -86.9265655894 -606.0
28.2441532859 -86.9265655894 -607.0
27.9351362915 -85.9755090731 -608.0
27.9351362915 -85.9755090731 -609.0
27.9351362915 -85.9755090731 -610.0
27.6261192971 -85.0244525568 -611.0
27.6261192971 -85.0244525568 -612.0
27.6261192971 -85.0244525568 -613.0
27.6261192971 -85.0244525568 -614.0
27.6261192971 -85.0244525568 -615.0
27.6261192971 -85.0244525568 -616.0
27.6261192971 -85.0244525568 -617.0
27.6261192971 -85.0244525568 -618.0
27.6261192971 -85.0244525568 -619.0
27.3171023027 -84.0733960405 -620.0
27.3171023027 -84.0733960405 -621.0
27.3171023027 -84.0733960405 -622.0
27.3171023027 -84.0733960405 -623.0
27.3171023027 -84.0733960405 -624.0
27.3171023027 -84.0733960405 -625.0
27.3171023027 -84.0733960405 -626.0
27.3171023027 -84.0733960405 -627.0
27.3171023027 -84.0733960405 -628.0
27.0080853084 -83.1223395242 -629.0
27.0080853084 -83.1223395242 -630.0
27.0080853084 -83.1223395242 -631.0
27.0080853084 -83.1223395242 -632.0
27.0080853084 -83.1223395242 -633.0
27.0080853084 -83.1223395242 -634.0
27.0080853084 -83.1223395242 -635.0
27.0080853084 -83.1223395242 -636.0
26.699068314 -82.1712830079 -637.0
26.699068314 -82.1712830079 -638.0
26.699068314 -82.1712830079 -639.0
26.699068314 -82.1712830079 -640.0
26.699068314 -82.1712830079 -641.0
26.699068314 -82.1712830079 -642.0
26.699068314 -82.1712830079 -643.0
26.3900513196 -81.2202264916 -644.0
26.3900513196 -81.2202264916 -645.0
26.3900513196 -81.2202264916 -646.0
26.3900513196 -81.2202264916 -647.0
26.3900513196 -81.2202264916 -648.0
26.3900513196 -81.2202264916 -649.0
26.3900513196 -81.2202264916 -650.0
26.3900513196 -81.2202264916 -651.0
26.3900513196 -81.2202264916 -652.0
26.3900513196 -81.2202264916 -653.0
26.0810343252 -80.2691699753 -654.0
26.0810343252 -80.2691699753 -655.0
26.0810343252 -80.2691699753 -656.0
26.0810343252 -80.2691699753 -657.0
26.0810343252 -80.2691699753 -658.0
26.0810343252 -80.2691699753 -659.0
26.0810343252 -80.2691699753 -660.0
26.0810343252 -80.2691699753 -661.0
25.7720173309 -79.318113459 -662.0
25.7720173309 -79.318113459 -663.0
25.7720173309 -79.318113459 -664.0
25.7720173309 -79.318113459 -665.0
25.7720173309 -79.318113459 -666.0
25.7720173309 -79.318113459 -667.0
25.7720173309 -79.318113459 -668.0
25.4630003365 -78.3670569427 -669.0
25.4630003365 -78.3670569427 -670.0
25.4630003365 -78.3670569427 -671.0
25.4630003365 -78.3670569427 -672.0
25.4630003365 -78.3670569427 -673.0
25.4630003365 -78.3670569427 -674.0
25.4630003365 -78.3670569427 -675.0
25.1539833421 -77.4160004264 -676.0
25.1539833421 -77.4160004264 -677.0
25.1539833421 -77.4160004264 -678.0
25.1539833421 -77.4160004264 -679.0
25.1539833421 -77.4160004264 -680.0
25.1539833421 -77.4160004264 -681.0
25.1539833421 -77.4160004264 -682.0
25.1539833421 -77.4160004264 -683.0
24.8449663477 -76.4649439101 -684.0
24.8449663477 -76.4649439101 -685.0
24.8449663477 -76.4649439101 -686.0
24.8449663477 -76.4649439101 -687.0
24.8449663477 -76.4649439101 -688.0
24.8449663477 -76.4649439101 -689.0
24.8449663477 -76.4649439101 -690.0
24.8449663477 -76.4649439101 -691.0
24.8449663477 -76.4649439101 -692.0
24.5359493534 -75.5138873938 -693.0
24.5359493534 -75.5138873938 -694.0
24.5359493534 -75.5138873938 -695.0
24.5359493534 -75.5138873938 -696.0
24.5359493534 -75.5138873938 -697.0
24.5359493534 -75.5138873938 -698.0
24.5359493534 -75.5138873938 -699.0
24.5359493534 -75.5138873938 -700.0
24.226932359 -74.5628308775 -701.0
24.226932359 -74.5628308775 -702.0
24.226932359 -74.5628308775 -703.0
24.226932359 -74.5628308775 -704.0
24.226932359 -74.5628308775 -705.0
24.226932359 -74.5628308775 -706.0
24.226932359 -74.5628308775 -707.0
23.9179153646 -73.6117743612 -708.0
23.9179153646 -73.6117743612 -709.0
24.226932359 -74.5628308775 -710.0
23.9179153646 -73.6117743612 -711.0
23.9179153646 -73.6117743612 -712.0
23.9179153646 -73.6117743612 -713.0
23.9179153646 -73.6117743612 -714.0
23.6088983702 -72.6607178449 -715.0
23.9179153646 -73.6117743612 -716.0
23.6088983702 -72.6607178449 -717.0
23.6088983702 -72.6607178449 -718.0
23.6088983702 -72.6607178449 -719.0
23.6088983702 -72.6607178449 -720.0
23.6088983702 -72.6607178449 -721.0
23.6088983702 -72.6607178449 -722.0
23.6088983702 -72.6607178449 -723.0
23.2998813759 -71.7096613287 -724.0
23.2998813759 -71.7096613287 -725.0
23.2998813759 -71.7096613287 -726.0
23.2998813759 -71.7096613287 -727.0
23.2998813759 -71.7096613287 -728.0
23.2998813759 -71.7096613287 -729.0
23.2998813759 -71.7096613287 -730.0
23.2998813759 -71.7096613287 -731.0
23.2998813759 -71.7096613287 -732.0
23.2998813759 -71.7096613287 -733.0
23.2998813759 -71.7096613287 -734.0
22.9908643815 -70.7586048124 -735.0
22.9908643815 -70.7586048124 -736.0
22.9908643815 -70.7586048124 -737.0
22.9908643815 -70.7586048124 -738.0
22.9908643815 -70.7586048124 -739.0
22.9908643815 -70.7586048124 -740.0
22.9908643815 -70.7586048124 -741.0
22.6818473871 -69.8075482961 -742.0
22.6818473871 -69.8075482961 -743.0
22.6818473871 -69.8075482961 -744.0
22.6818473871 -69.8075482961 -745.0
22.6818473871 -69.8075482961 -746.0
22.9908643815 -70.7586048124 -747.0
22.9908643815 -70.7586048124 -748.0
27.455363543 -106.931580989 -279.0
27.455363543 -106.931580989 -280.0
27.455363543 -106.931580989 -281.0
27.7040534302 -107.90016415 -282.0
27.7040534302 -107.90016415 -283.0
27.7040534302 -107.90016415 -284.0
27.7040534302 -107.90016415 -285.0
27.7040534302 -107.90016415 -286.0
27.7040534302 -107.90016415 -287.0
27.7040534302 -107.90016415 -288.0
27.7040534302 -107.90016415 -289.0
27.7040534302 -107.90016415 -290.0
27.7040534302 -107.90016415 -291.0
27.7040534302 -107.90016415 -292.0
27.7040534302 -107.90016415 -293.0
27.7040534302 -107.90016415 -294.0
27.7040534302 -107.90016415 -295.0
27.9527433173 -108.868747311 -296.0
27.9527433173 -108.868747311 -297.0
27.9527433173 -108.868747311 -298.0
27.9527433173 -108.868747311 -299.0
27.9527433173 -108.868747311 -300.0
27.9527433173 -108.868747311 -301.0
27.9527433173 -108.868747311 -302.0
27.9527433173 -108.868747311 -303.0
27.9527433173 -108.868747311 -304.0
27.9527433173 -108.868747311 -305.0
27.9527433173 -108.868747311 -306.0
27.9527433173 -108.868747311 -307.0
27.9527433173 -108.868747311 -308.0
27.9527433173 -108.868747311 -309.0
28.2014332045 -109.837330472 -310.0
28.2014332045 -109.837330472 -311.0
28.2014332045 -109.837330472 -312.0
28.2014332045 -109.837330472 -313.0
27.9527433173 -108.868747311 -314.0
27.9527433173 -108.868747311 -315.0
28.2014332045 -109.837330472 -316.0
28.2014332045 -109.837330472 -317.0
28.2014332045 -109.837330472 -318.0
28.2014332045 -109.837330472 -319.0
28.2014332045 -109.837330472 -320.0
28.2014332045 -109.837330472 -321.0
28.2014332045 -109.837330472 -322.0
28.2014332045 -109.837330472 -323.0
28.2014332045 -109.837330472 -324.0
28.2014332045 -109.837330472 -325.0
31.4344017376 -122.428911567 -326.0
31.4344017376 -122.428911567 -327.0
31.6830916248 -123.397494728 -328.0
31.4344017376 -122.428911567 -329.0
31.4344017376 -122.428911567 -330.0
31.4344017376 -122.428911567 -331.0
31.6830916248 -123.397494728 -332.0
31.6830916248 -123.397494728 -333.0
31.6830916248 -123.397494728 -334.0
31.6830916248 -123.397494728 -335.0
31.6830916248 -123.397494728 -336.0
31.6830916248 -123.397494728 -337.0
31.4344017376 -122.428911567 -338.0
31.4344017376 -122.428911567 -339.0
31.4344017376 -122.428911567 -340.0
31.1857118505 -121.460328406 -341.0
31.1857118505 -121.460328406 -342.0
31.1857118505 -121.460328406 -343.0
31.1857118505 -121.460328406 -344.0
31.1857118505 -121.460328406 -345.0
31.1857118505 -121.460328406 -346.0
31.1857118505 -121.460328406 -347.0
31.4344017376 -122.428911567 -348.0
31.4344017376 -122.428911567 -349.0
31.4344017376 -122.428911567 -350.0
31.6830916248 -123.397494728 -351.0
31.6830916248 -123.397494728 -352.0
31.6830916248 -123.397494728 -353.0
31.6830916248 -123.397494728 -354.0
31.6830916248 -123.397494728 -355.0
31.6830916248 -123.397494728 -356.0
31.6830916248 -123.397494728 -357.0
31.6830916248 -123.397494728 -358.0
31.931781512 -124.366077889 -359.0
31.931781512 -124.366077889 -360.0
31.6830916248 -123.397494728 -361.0
28.947502866 -112.743079955 -362.0
29.1961927532 -113.711663117 -363.0
29.1961927532 -113.711663117 -364.0
29.1961927532 -113.711663117 -365.0
28.947502866 -112.743079955 -366.0
28.947502866 -112.743079955 -367.0
28.947502866 -112.743079955 -368.0
28.947502866 -112.743079955 -369.0
28.947502866 -112.743079955 -370.0
28.947502866 -112.743079955 -371.0
28.947502866 -112.743079955 -372.0
28.947502866 -112.743079955 -373.0
28.6988129788 -111.774496794 -374.0
28.6988129788 -111.774496794 -375.0
28.6988129788 -111.774496794 -376.0
28.6988129788 -111.774496794 -377.0
28.6988129788 -111.774496794 -378.0
28.6988129788 -111.774496794 -379.0
28.6988129788 -111.774496794 -380.0
28.6988129788 -111.774496794 -381.0
28.6988129788 -111.774496794 -382.0
28.4501230917 -110.805913633 -383.0
28.4501230917 -110.805913633 -384.0
28.4501230917 -110.805913633 -385.0
28.4501230917 -110.805913633 -386.0
28.4501230917 -110.805913633 -387.0
28.4501230917 -110.805913633 -388.0
28.4501230917 -110.805913633 -389.0
28.2014332045 -109.837330472 -390.0
28.2014332045 -109.837330472 -391.0
28.2014332045 -109.837330472 -392.0
28.2014332045 -109.837330472 -393.0
28.2014332045 -109.837330472 -394.0
28.2014332045 -109.837330472 -395.0
28.2014332045 -109.837330472 -396.0
28.2014332045 -109.837330472 -397.0
28.2014332045 -109.837330472 -398.0
28.2014332045 -109.837330472 -399.0
28.2014332045 -109.837330472 -400.0
28.2014332045 -109.837330472 -401.0
27.9527433173 -108.868747311 -402.0
27.9527433173 -108.868747311 -403.0
27.9527433173 -108.868747311 -404.0
27.9527433173 -108.868747311 -405.0
27.9527433173 -108.868747311 -406.0
27.9527433173 -108.868747311 -407.0
27.9527433173 -108.868747311 -408.0
27.7040534302 -107.90016415 -409.0
27.7040534302 -107.90016415 -410.0
27.7040534302 -107.90016415 -411.0
27.7040534302 -107.90016415 -412.0
27.7040534302 -107.90016415 -413.0
27.7040534302 -107.90016415 -414.0
27.7040534302 -107.90016415 -415.0
27.455363543 -106.931580989 -416.0
27.7040534302 -107.90016415 -417.0
27.7040534302 -107.90016415 -418.0
27.7040534302 -107.90016415 -419.0
27.7040534302 -107.90016415 -420.0
27.455363543 -106.931580989 -421.0
27.455363543 -106.931580989 -422.0
27.455363543 -106.931580989 -423.0
27.455363543 -106.931580989 -424.0
27.455363543 -106.931580989 -425.0
27.455363543 -106.931580989 -426.0
27.455363543 -106.931580989 -427.0
27.455363543 -106.931580989 -428.0
27.2066736558 -105.962997827 -429.0
27.2066736558 -105.962997827 -430.0
27.2066736558 -105.962997827 -431.0
27.2066736558 -105.962997827 -432.0
27.2066736558 -105.962997827 -433.0
27.2066736558 -105.962997827 -434.0
27.2066736558 -105.962997827 -435.0
27.2066736558 -105.962997827 -436.0
27.2066736558 -105.962997827 -437.0
26.9579837687 -104.994414666 -438.0
26.9579837687 -104.994414666 -439.0
26.9579837687 -104.994414666 -440.0
26.9579837687 -104.994414666 -441.0
26.9579837687 -104.994414666 -442.0
26.9579837687 -104.994414666 -443.0
26.9579837687 -104.994414666 -444.0
26.7092938815 -104.025831505 -445.0
26.7092938815 -104.025831505 -446.0
26.7092938815 -104.025831505 -447.0
26.7092938815 -104.025831505 -448.0
26.7092938815 -104.025831505 -449.0
26.7092938815 -104.025831505 -450.0
26.7092938815 -104.025831505 -451.0
26.7092938815 -104.025831505 -452.0
26.7092938815 -104.025831505 -453.0
26.7092938815 -104.025831505 -454.0
26.7092938815 -104.025831505 -455.0
26.4606039943 -103.057248344 -456.0
26.4606039943 -103.057248344 -457.0
26.4606039943 -103.057248344 -458.0
26.4606039943 -103.057248344 -459.0
26.4606039943 -103.057248344 -460.0
26.4606039943 -103.057248344 -461.0
26.4606039943 -103.057248344 -462.0
26.2119141072 -102.088665183 -463.0
26.2119141072 -102.088665183 -464.0
26.2119141072 -102.088665183 -465.0
26.4606039943 -103.057248344 -466.0
26.2119141072 -102.088665183 -467.0
26.2119141072 -102.088665183 -468.0
26.2119141072 -102.088665183 -469.0
26.2119141072 -102.088665183 -470.0
26.2119141072 -102.088665183 -471.0
26.2119141072 -102.088665183 -472.0
26.2119141072 -102.088665183 -473.0
26.2119141072 -102.088665183 -474.0
25.96322422 -101.120082022 -475.0
25.96322422 -101.120082022 -476.0
25.96322422 -101.120082022 -477.0
25.96322422 -101.120082022 -478.0
25.96322422 -101.120082022 -479.0
25.96322422 -101.120082022 -480.0
25.96322422 -101.120082022 -481.0
25.96322422 -101.120082022 -482.0
25.7145343328 -100.151498861 -483.0
25.7145343328 -100.151498861 -484.0
25.7145343328 -100.151498861 -485.0
25.7145343328 -100.151498861 -486.0
25.7145343328 -100.151498861 -487.0
25.7145343328 -100.151498861 -488.0
25.7145343328 -100.151498861 -489.0
25.4658444457 -99.1829156996 -490.0
25.4658444457 -99.1829156996 -491.0
25.4658444457 -99.1829156996 -492.0
25.4658444457 -99.1829156996 -493.0
25.4658444457 -99.1829156996 -494.0
25.4658444457 -99.1829156996 -495.0
25.4658444457 -99.1829156996 -496.0
25.4658444457 -99.1829156996 -497.0
25.4658444457 -99.1829156996 -498.0
25.4658444457 -99.1829156996 -499.0
25.4658444457 -99.1829156996 -500.0
25.4658444457 -99.1829156996 -501.0
25.4658444457 -99.1829156996 -502.0
25.2171545585 -98.2143325384 -503.0
25.2171545585 -98.2143325384 -504.0
25.2171545585 -98.2143325384 -505.0
24.9684646714 -97.2457493773 -506.0
24.9684646714 -97.2457493773 -507.0
24.9684646714 -97.2457493773 -508.0
24.9684646714 -97.2457493773 -509.0
25.2171545585 -98.2143325384 -510.0
24.9684646714 -97.2457493773 -511.0
24.9684646714 -97.2457493773 -512.0
24.9684646714 -97.2457493773 -513.0
24.9684646714 -97.2457493773 -514.0
24.9684646714 -97.2457493773 -515.0
24.9684646714 -97.2457493773 -516.0
24.9684646714 -97.2457493773 -517.0
24.7197747842 -96.2771662162 -518.0
24.7197747842 -96.2771662162 -519.0
24.7197747842 -96.2771662162 -520.0
24.7197747842 -96.2771662162 -521.0
24.7197747842 -96.2771662162 -522.0
24.7197747842 -96.2771662162 -523.0
24.7197747842 -96.2771662162 -524.0
24.7197747842 -96.2771662162 -525.0
24.7197747842 -96.2771662162 -526.0
24.7197747842 -96.2771662162 -527.0
24.471084897 -95.3085830551 -528.0
24.471084897 -95.3085830551 -529.0
24.471084897 -95.3085830551 -530.0
24.471084897 -95.3085830551 -531.0
24.471084897 -95.3085830551 -532.0
24.471084897 -95.3085830551 -533.0
24.2223950099 -94.3399998939 -534.0
24.2223950099 -94.3399998939 -535.0
24.2223950099 -94.3399998939 -536.0
24.2223950099 -94.3399998939 -537.0
24.2223950099 -94.3399998939 -538.0
24.2223950099 -94.3399998939 -539.0
24.2223950099 -94.3399998939 -540.0
24.2223950099 -94.3399998939 -541.0
24.2223950099 -94.3399998939 -542.0
24.2223950099 -94.3399998939 -543.0
23.9737051227 -93.3714167328 -544.0
23.9737051227 -93.3714167328 -545.0
23.9737051227 -93.3714167328 -546.0
23.9737051227 -93.3714167328 -547.0
23.9737051227 -93.3714167328 -548.0
23.9737051227 -93.3714167328 -549.0
23.9737051227 -93.3714167328 -550.0
23.9737051227 -93.3714167328 -551.0
23.9737051227 -93.3714167328 -552.0
23.7250152355 -92.4028335717 -553.0
23.7250152355 -92.4028335717 -554.0
23.7250152355 -92.4028335717 -555.0
23.7250152355 -92.4028335717 -556.0
23.7250152355 -92.4028335717 -557.0
23.7250152355 -92.4028335717 -558.0
23.7250152355 -92.4028335717 -559.0
23.7250152355 -92.4028335717 -560.0
23.7250152355 -92.4028335717 -561.0
23.7250152355 -92.4028335717 -562.0
23.4763253484 -91.4342504105 -563.0
23.4763253484 -91.4342504105 -564.0
23.4763253484 -91.4342504105 -565.0
23.4763253484 -91.4342504105 -566.0
23.4763253484 -91.4342504105 -567.0
23.2276354612 -90.4656672494 -568.0
23.2276354612 -90.4656672494 -569.0
23.2276354612 -90.4656672494 -570.0
23.2276354612 -90.4656672494 -571.0
23.2276354612 -90.4656672494 -572.0
23.2276354612 -90.4656672494 -573.0
23.2276354612 -90.4656672494 -574.0
23.2276354612 -90.4656672494 -575.0
23.2276354612 -90.4656672494 -576.0
22.978945574 -89.4970840883 -577.0
22.978945574 -89.4970840883 -578.0
22.978945574 -89.4970840883 -579.0
22.978945574 -89.4970840883 -580.0
22.978945574 -89.4970840883 -581.0
22.978945574 -89.4970840883 -582.0
22.978945574 -89.4970840883 -583.0
22.978945574 -89.4970840883 -584.0
22.978945574 -89.4970840883 -585.0
22.978945574 -89.4970840883 -586.0
22.7302556869 -88.5285009272 -587.0
22.7302556869 -88.5285009272 -588.0
22.7302556869 -88.5285009272 -589.0
22.7302556869 -88.5285009272 -590.0
22.7302556869 -88.5285009272 -591.0
22.7302556869 -88.5285009272 -592.0
22.4815657997 -87.559917766 -593.0
22.4815657997 -87.559917766 -594.0
22.4815657997 -87.559917766 -595.0
22.4815657997 -87.559917766 -596.0
22.4815657997 -87.559917766 -597.0
22.4815657997 -87.559917766 -598.0
22.2328759125 -86.5913346049 -599.0
22.2328759125 -86.5913346049 -600.0
22.2328759125 -86.5913346049 -601.0
22.2328759125 -86.5913346049 -602.0
22.2328759125 -86.5913346049 -603.0
22.2328759125 -86.5913346049 -604.0
22.2328759125 -86.5913346049 -605.0
22.2328759125 -86.5913346049 -606.0
22.2328759125 -86.5913346049 -607.0
22.2328759125 -86.5913346049 -608.0
22.2328759125 -86.5913346049 -609.0
22.2328759125 -86.5913346049 -610.0
21.9841860254 -85.6227514438 -611.0
21.9841860254 -85.6227514438 -612.0
21.9841860254 -85.6227514438 -613.0
21.9841860254 -85.6227514438 -614.0
21.9841860254 -85.6227514438 -615.0
21.9841860254 -85.6227514438 -616.0
21.9841860254 -85.6227514438 -617.0
21.9841860254 -85.6227514438 -618.0
21.9841860254 -85.6227514438 -619.0
21.7354961382 -84.6541682826 -620.0
21.7354961382 -84.6541682826 -621.0
21.7354961382 -84.6541682826 -622.0
21.7354961382 -84.6541682826 -623.0
21.7354961382 -84.6541682826 -624.0
21.7354961382 -84.6541682826 -625.0
21.486806251 -83.6855851215 -626.0
21.486806251 -83.6855851215 -627.0
21.486806251 -83.6855851215 -628.0
21.486806251 -83.6855851215 -629.0
21.486806251 -83.6855851215 -630.0
21.486806251 -83.6855851215 -631.0
21.486806251 -83.6855851215 -632.0
21.486806251 -83.6855851215 -633.0
21.486806251 -83.6855851215 -634.0
21.486806251 -83.6855851215 -635.0
21.486806251 -83.6855851215 -636.0
21.486806251 -83.6855851215 -637.0
21.2381163639 -82.7170019604 -638.0
21.2381163639 -82.7170019604 -639.0
21.2381163639 -82.7170019604 -640.0
21.2381163639 -82.7170019604 -641.0
20.9894264767 -81.7484187993 -642.0
20.9894264767 -81.7484187993 -643.0
20.9894264767 -81.7484187993 -644.0
20.9894264767 -81.7484187993 -645.0
20.9894264767 -81.7484187993 -646.0
20.9894264767 -81.7484187993 -647.0
20.7407365895 -80.7798356381 -648.0
20.7407365895 -80.7798356381 -649.0
20.7407365895 -80.7798356381 -650.0
20.7407365895 -80.7798356381 -651.0
20.7407365895 -80.7798356381 -652.0
20.7407365895 -80.7798356381 -653.0
20.7407365895 -80.7798356381 -654.0
20.7407365895 -80.7798356381 -655.0
20.7407365895 -80.7798356381 -656.0
20.7407365895 -80.7798356381 -657.0
20.4920467024 -79.811252477 -658.0
20.4920467024 -79.811252477 -659.0
20.4920467024 -79.811252477 -660.0
20.4920467024 -79.811252477 -661.0
20.4920467024 -79.811252477 -662.0
20.4920467024 -79.811252477 -663.0
20.4920467024 -79.811252477 -664.0
20.2433568152 -78.8426693159 -665.0
20.4920467024 -79.811252477 -666.0
20.2433568152 -78.8426693159 -667.0
20.2433568152 -78.8426693159 -668.0
20.2433568152 -78.8426693159 -669.0
20.2433568152 -78.8426693159 -670.0
19.9946669281 -77.8740861547 -671.0
19.9946669281 -77.8740861547 -672.0
19.9946669281 -77.8740861547 -673.0
19.9946669281 -77.8740861547 -674.0
19.9946669281 -77.8740861547 -675.0
19.9946669281 -77.8740861547 -676.0
19.9946669281 -77.8740861547 -677.0
19.9946669281 -77.8740861547 -678.0
19.9946669281 -77.8740861547 -679.0
19.9946669281 -77.8740861547 -680.0
19.7459770409 -76.9055029936 -681.0
19.7459770409 -76.9055029936 -682.0
19.7459770409 -76.9055029936 -683.0
19.7459770409 -76.9055029936 -684.0
19.7459770409 -76.9055029936 -685.0
19.7459770409 -76.9055029936 -686.0
19.4972871537 -75.9369198325 -687.0
19.4972871537 -75.9369198325 -688.0
19.4972871537 -75.9369198325 -689.0
19.4972871537 -75.9369198325 -690.0
19.4972871537 -75.9369198325 -691.0
19.4972871537 -75.9369198325 -692.0
19.4972871537 -75.9369198325 -693.0
19.4972871537 -75.9369198325 -694.0
19.2485972666 -74.9683366714 -695.0
19.2485972666 -74.9683366714 -696.0
19.2485972666 -74.9683366714 -697.0
19.2485972666 -74.9683366714 -698.0
19.2485972666 -74.9683366714 -699.0
19.2485972666 -74.9683366714 -700.0
19.2485972666 -74.9683366714 -701.0
19.2485972666 -74.9683366714 -702.0
19.2485972666 -74.9683366714 -703.0
18.9999073794 -73.9997535102 -704.0
18.9999073794 -73.9997535102 -705.0
18.9999073794 -73.9997535102 -706.0
18.9999073794 -73.9997535102 -707.0
18.9999073794 -73.9997535102 -708.0
18.9999073794 -73.9997535102 -709.0
18.9999073794 -73.9997535102 -710.0
18.7512174922 -73.0311703491 -711.0
18.7512174922 -73.0311703491 -712.0
18.7512174922 -73.0311703491 -713.0
18.7512174922 -73.0311703491 -714.0
18.7512174922 -73.0311703491 -715.0
18.7512174922 -73.0311703491 -716.0
18.7512174922 -73.0311703491 -717.0
18.7512174922 -73.0311703491 -718.0
18.5025276051 -72.062587188 -719.0
18.5025276051 -72.062587188 -720.0
18.5025276051 -72.062587188 -721.0
18.5025276051 -72.062587188 -722.0
18.5025276051 -72.062587188 -723.0
18.5025276051 -72.062587188 -724.0
18.5025276051 -72.062587188 -725.0
18.5025276051 -72.062587188 -726.0
18.5025276051 -72.062587188 -727.0
18.5025276051 -72.062587188 -728.0
18.2538377179 -71.0940040268 -729.0
18.2538377179 -71.0940040268 -730.0
18.2538377179 -71.0940040268 -731.0
18.2538377179 -71.0940040268 -732.0
18.2538377179 -71.0940040268 -733.0
18.2538377179 -71.0940040268 -734.0
18.0051478307 -70.1254208657 -735.0
18.0051478307 -70.1254208657 -736.0
18.0051478307 -70.1254208657 -737.0
18.0051478307 -70.1254208657 -738.0
18.0051478307 -70.1254208657 -739.0
18.0051478307 -70.1254208657 -740.0
18.0051478307 -70.1254208657 -741.0
18.0051478307 -70.1254208657 -742.0
17.7564579436 -69.1568377046 -743.0
18.0051478307 -70.1254208657 -744.0
17.7564579436 -69.1568377046 -745.0
18.0051478307 -70.1254208657 -746.0
17.7564579436 -69.1568377046 -747.0
20.4995158157 -107.46222523 -279.0
20.6868971303 -108.44451248 -280.0
20.6868971303 -108.44451248 -281.0
20.6868971303 -108.44451248 -282.0
20.6868971303 -108.44451248 -283.0
20.6868971303 -108.44451248 -284.0
20.6868971303 -108.44451248 -285.0
20.6868971303 -108.44451248 -286.0
20.6868971303 -108.44451248 -287.0
20.6868971303 -108.44451248 -288.0
20.6868971303 -108.44451248 -289.0
20.8742784448 -109.426799731 -290.0
20.6868971303 -108.44451248 -291.0
20.8742784448 -109.426799731 -292.0
20.8742784448 -109.426799731 -293.0
20.8742784448 -109.426799731 -294.0
20.8742784448 -109.426799731 -295.0
20.8742784448 -109.426799731 -296.0
20.8742784448 -109.426799731 -297.0
20.8742784448 -109.426799731 -298.0
20.8742784448 -109.426799731 -299.0
20.8742784448 -109.426799731 -300.0
20.8742784448 -109.426799731 -301.0
21.0616597594 -110.409086982 -302.0
21.0616597594 -110.409086982 -303.0
20.8742784448 -109.426799731 -304.0
20.8742784448 -109.426799731 -305.0
21.0616597594 -110.409086982 -306.0
21.0616597594 -110.409086982 -307.0
21.0616597594 -110.409086982 -308.0
21.0616597594 -110.409086982 -309.0
21.0616597594 -110.409086982 -310.0
21.0616597594 -110.409086982 -311.0
21.0616597594 -110.409086982 -312.0
21.0616597594 -110.409086982 -313.0
21.0616597594 -110.409086982 -314.0
21.0616597594 -110.409086982 -315.0
21.0616597594 -110.409086982 -316.0
21.0616597594 -110.409086982 -317.0
21.0616597594 -110.409086982 -318.0
21.0616597594 -110.409086982 -319.0
21.0616597594 -110.409086982 -320.0
21.249041074 -111.391374233 -321.0
21.249041074 -111.391374233 -322.0
21.249041074 -111.391374233 -323.0
21.249041074 -111.391374233 -324.0
21.249041074 -111.391374233 -325.0
23.1228542199 -121.21424674 -326.0
23.497616849 -123.178821241 -327.0
23.497616849 -123.178821241 -328.0
23.6849981636 -124.161108492 -329.0
23.6849981636 -124.161108492 -330.0
23.6849981636 -124.161108492 -331.0
23.8723794782 -125.143395743 -332.0
23.8723794782 -125.143395743 -333.0
23.8723794782 -125.143395743 -334.0
23.6849981636 -124.161108492 -335.0
23.6849981636 -124.161108492 -336.0
23.6849981636 -124.161108492 -337.0
23.6849981636 -124.161108492 -338.0
23.6849981636 -124.161108492 -339.0
23.497616849 -123.178821241 -340.0
23.497616849 -123.178821241 -341.0
23.497616849 -123.178821241 -342.0
23.497616849 -123.178821241 -343.0
23.3102355345 -122.196533991 -344.0
23.3102355345 -122.196533991 -345.0
23.497616849 -123.178821241 -346.0
23.497616849 -123.178821241 -347.0
23.6849981636 -124.161108492 -348.0
23.6849981636 -124.161108492 -349.0
23.6849981636 -124.161108492 -350.0
23.6849981636 -124.161108492 -351.0
23.8723794782 -125.143395743 -352.0
23.8723794782 -125.143395743 -353.0
23.8723794782 -125.143395743 -354.0
23.8723794782 -125.143395743 -355.0
23.8723794782 -125.143395743 -356.0
23.8723794782 -125.143395743 -357.0
23.8723794782 -125.143395743 -358.0
23.8723794782 -125.143395743 -359.0
23.8723794782 -125.143395743 -360.0
23.8723794782 -125.143395743 -361.0
21.9985663324 -115.320523236 -362.0
21.8111850178 -114.338235985 -363.0
21.8111850178 -114.338235985 -364.0
21.8111850178 -114.338235985 -365.0
21.8111850178 -114.338235985 -366.0
21.6238037032 -113.355948734 -367.0
21.6238037032 -113.355948734 -368.0
21.6238037032 -113.355948734 -369.0
21.6238037032 -113.355948734 -370.0
21.6238037032 -113.355948734 -371.0
21.6238037032 -113.355948734 -372.0
21.6238037032 -113.355948734 -373.0
21.6238037032 -113.355948734 -374.0
21.6238037032 -113.355948734 -375.0
21.6238037032 -113.355948734 -376.0
21.4364223886 -112.373661483 -377.0
21.4364223886 -112.373661483 -378.0
21.4364223886 -112.373661483 -379.0
21.4364223886 -112.373661483 -380.0
21.4364223886 -112.373661483 -381.0
21.4364223886 -112.373661483 -382.0
21.4364223886 -112.373661483 -383.0
21.4364223886 -112.373661483 -384.0
21.4364223886 -112.373661483 -385.0
21.249041074 -111.391374233 -386.0
21.249041074 -111.391374233 -387.0
21.249041074 -111.391374233 -388.0
21.249041074 -111.391374233 -389.0
21.249041074 -111.391374233 -390.0
21.249041074 -111.391374233 -391.0
21.249041074 -111.391374233 -392.0
21.249041074 -111.391374233 -393.0
21.249041074 -111.391374233 -394.0
21.0616597594 -110.409086982 -395.0
21.0616597594 -110.409086982 -396.0
21.0616597594 -110.409086982 -397.0
21.0616597594 -110.409086982 -398.0
21.0616597594 -110.409086982 -399.0
20.8742784448 -109.426799731 -400.0
21.0616597594 -110.409086982 -401.0
21.0616597594 -110.409086982 -402.0
20.8742784448 -109.426799731 -403.0
20.8742784448 -109.426799731 -404.0
20.8742784448 -109.426799731 -405.0
20.8742784448 -109.426799731 -406.0
20.8742784448 -109.426799731 -407.0
20.8742784448 -109.426799731 -408.0
20.6868971303 -108.44451248 -409.0
20.6868971303 -108.44451248 -410.0
20.6868971303 -108.44451248 -411.0
20.6868971303 -108.44451248 -412.0
20.6868971303 -108.44451248 -413.0
20.6868971303 -108.44451248 -414.0
20.6868971303 -108.44451248 -415.0
20.6868971303 -108.44451248 -416.0
20.4995158157 -107.46222523 -417.0
20.4995158157 -107.46222523 -418.0
20.4995158157 -107.46222523 -419.0
20.4995158157 -107.46222523 -420.0
20.4995158157 -107.46222523 -421.0
20.4995158157 -107.46222523 -422.0
20.4995158157 -107.46222523 -423.0
20.4995158157 -107.46222523 -424.0
20.4995158157 -107.46222523 -425.0
20.4995158157 -107.46222523 -426.0
20.4995158157 -107.46222523 -427.0
20.4995158157 -107.46222523 -428.0
20.4995158157 -107.46222523 -429.0
20.3121345011 -106.479937979 -430.0
20.3121345011 -106.479937979 -431.0
20.3121345011 -106.479937979 -432.0
20.3121345011 -106.479937979 -433.0
20.4995158157 -107.46222523 -434.0
20.3121345011 -106.479937979 -435.0
20.3121345011 -106.479937979 -436.0
20.1247531865 -105.497650728 -437.0
20.1247531865 -105.497650728 -438.0
20.1247531865 -105.497650728 -439.0
20.1247531865 -105.497650728 -440.0
20.1247531865 -105.497650728 -441.0
20.1247531865 -105.497650728 -442.0
20.1247531865 -105.497650728 -443.0
20.1247531865 -105.497650728 -444.0
20.1247531865 -105.497650728 -445.0
19.9373718719 -104.515363478 -446.0
19.9373718719 -104.515363478 -447.0
19.9373718719 -104.515363478 -448.0
19.9373718719 -104.515363478 -449.0
19.9373718719 -104.515363478 -450.0
19.9373718719 -104.515363478 -451.0
19.9373718719 -104.515363478 -452.0
19.9373718719 -104.515363478 -453.0
19.9373718719 -104.515363478 -454.0
19.9373718719 -104.515363478 -455.0
19.9373718719 -104.515363478 -456.0
19.7499905573 -103.533076227 -457.0
19.7499905573 -103.533076227 -458.0
19.7499905573 -103.533076227 -459.0
19.7499905573 -103.533076227 -460.0
19.7499905573 -103.533076227 -461.0
19.7499905573 -103.533076227 -462.0
19.7499905573 -103.533076227 -463.0
19.5626092427 -102.550788976 -464.0
19.5626092427 -102.550788976 -465.0
19.5626092427 -102.550788976 -466.0
19.5626092427 -102.550788976 -467.0
19.5626092427 -102.550788976 -468.0
19.5626092427 -102.550788976 -469.0
19.5626092427 -102.550788976 -470.0
19.5626092427 -102.550788976 -471.0
19.3752279282 -101.568501725 -472.0
19.3752279282 -101.568501725 -473.0
19.3752279282 -101.568501725 -474.0
19.3752279282 -101.568501725 -475.0
19.3752279282 -101.568501725 -476.0
19.3752279282 -101.568501725 -477.0
19.3752279282 -101.568501725 -478.0
19.3752279282 -101.568501725 -479.0
19.3752279282 -101.568501725 -480.0
19.3752279282 -101.568501725 -481.0
19.1878466136 -100.586214475 -482.0
19.1878466136 -100.586214475 -483.0
19.1878466136 -100.586214475 -484.0
19.1878466136 -100.586214475 -485.0
19.1878466136 -100.586214475 -486.0
19.1878466136 -100.586214475 -487.0
19.1878466136 -100.586214475 -488.0
19.000465299 -99.6039272239 -489.0
19.000465299 -99.6039272239 -490.0
19.1878466136 -100.586214475 -491.0
19.1878466136 -100.586214475 -492.0
19.000465299 -99.6039272239 -493.0
19.000465299 -99.6039272239 -494.0
19.000465299 -99.6039272239 -495.0
19.000465299 -99.6039272239 -496.0
19.000465299 -99.6039272239 -497.0
19.000465299 -99.6039272239 -498.0
19.000465299 -99.6039272239 -499.0
19.000465299 -99.6039272239 -500.0
18.8130839844 -98.6216399732 -501.0
18.8130839844 -98.6216399732 -502.0
18.8130839844 -98.6216399732 -503.0
18.8130839844 -98.6216399732 -504.0
18.8130839844 -98.6216399732 -505.0
18.8130839844 -98.6216399732 -506.0
18.8130839844 -98.6216399732 -507.0
18.8130839844 -98.6216399732 -508.0
18.8130839844 -98.6216399732 -509.0
18.6257026698 -97.6393527224 -510.0
18.6257026698 -97.6393527224 -511.0
18.6257026698 -97.6393527224 -512.0
18.6257026698 -97.6393527224 -513.0
18.6257026698 -97.6393527224 -514.0
18.6257026698 -97.6393527224 -515.0
18.4383213552 -96.6570654717 -516.0
18.4383213552 -96.6570654717 -517.0
18.4383213552 -96.6570654717 -518.0
18.4383213552 -96.6570654717 -519.0
18.4383213552 -96.6570654717 -520.0
18.4383213552 -96.6570654717 -521.0
18.4383213552 -96.6570654717 -522.0
18.4383213552 -96.6570654717 -523.0
18.4383213552 -96.6570654717 -524.0
18.4383213552 -96.6570654717 -525.0
18.2509400406 -95.674778221 -526.0
18.2509400406 -95.674778221 -527.0
18.2509400406 -95.674778221 -528.0
18.2509400406 -95.674778221 -529.0
18.2509400406 -95.674778221 -530.0
18.2509400406 -95.674778221 -531.0
18.2509400406 -95.674778221 -532.0
18.2509400406 -95.674778221 -533.0
18.0635587261 -94.6924909702 -534.0
18.0635587261 -94.6924909702 -535.0
18.0635587261 -94.6924909702 -536.0
18.0635587261 -94.6924909702 -537.0
18.0635587261 -94.6924909702 -538.0
18.0635587261 -94.6924909702 -539.0
18.0635587261 -94.6924909702 -540.0
18.0635587261 -94.6924909702 -541.0
17.8761774115 -93.7102037195 -542.0
17.8761774115 -93.7102037195 -543.0
17.8761774115 -93.7102037195 -544.0
17.8761774115 -93.7102037195 -545.0
17.8761774115 -93.7102037195 -546.0
17.8761774115 -93.7102037195 -547.0
17.8761774115 -93.7102037195 -548.0
17.8761774115 -93.7102037195 -549.0
17.8761774115 -93.7102037195 -550.0
17.8761774115 -93.7102037195 -551.0
17.6887960969 -92.7279164688 -552.0
17.6887960969 -92.7279164688 -553.0
17.6887960969 -92.7279164688 -554.0
17.6887960969 -92.7279164688 -555.0
17.6887960969 -92.7279164688 -556.0
17.6887960969 -92.7279164688 -557.0
17.5014147823 -91.7456292181 -558.0
17.5014147823 -91.7456292181 -559.0
17.5014147823 -91.7456292181 -560.0
17.5014147823 -91.7456292181 -561.0
17.5014147823 -91.7456292181 -562.0
17.5014147823 -91.7456292181 -563.0
17.5014147823 -91.7456292181 -564.0
17.5014147823 -91.7456292181 -565.0
17.3140334677 -90.7633419673 -566.0
17.3140334677 -90.7633419673 -567.0
17.3140334677 -90.7633419673 -568.0
17.3140334677 -90.7633419673 -569.0
17.3140334677 -90.7633419673 -570.0
17.3140334677 -90.7633419673 -571.0
17.3140334677 -90.7633419673 -572.0
17.3140334677 -90.7633419673 -573.0
17.1266521531 -89.7810547166 -574.0
17.1266521531 -89.7810547166 -575.0
17.3140334677 -90.7633419673 -576.0
17.1266521531 -89.7810547166 -577.0
17.1266521531 -89.7810547166 -578.0
17.1266521531 -89.7810547166 -579.0
17.1266521531 -89.7810547166 -580.0
17.1266521531 -89.7810547166 -581.0
17.1266521531 -89.7810547166 -582.0
17.1266521531 -89.7810547166 -583.0
16.9392708385 -88.7987674659 -584.0
16.9392708385 -88.7987674659 -585.0
16.9392708385 -88.7987674659 -586.0
16.9392708385 -88.7987674659 -587.0
16.9392708385 -88.7987674659 -588.0
16.9392708385 -88.7987674659 -589.0
16.9392708385 -88.7987674659 -590.0
16.9392708385 -88.7987674659 -591.0
16.751889524 -87.8164802151 -592.0
16.751889524 -87.8164802151 -593.0
16.751889524 -87.8164802151 -594.0
16.751889524 -87.8164802151 -595.0
16.751889524 -87.8164802151 -596.0
16.751889524 -87.8164802151 -597.0
16.751889524 -87.8164802151 -598.0
16.5645082094 -86.8341929644 -599.0
16.5645082094 -86.8341929644 -600.0
16.751889524 -87.8164802151 -601.0
16.751889524 -87.8164802151 -602.0
16.5645082094 -86.8341929644 -603.0
16.5645082094 -86.8341929644 -604.0
16.5645082094 -86.8341929644 -605.0
16.5645082094 -86.8341929644 -606.0
16.3771268948 -85.8519057137 -607.0
16.3771268948 -85.8519057137 -608.0
16.3771268948 -85.8519057137 -609.0
16.3771268948 -85.8519057137 -610.0
16.3771268948 -85.8519057137 -611.0
16.3771268948 -85.8519057137 -612.0
16.3771268948 -85.8519057137 -613.0
16.3771268948 -85.8519057137 -614.0
16.3771268948 -85.8519057137 -615.0
16.1897455802 -84.869618463 -616.0
16.1897455802 -84.869618463 -617.0
16.1897455802 -84.869618463 -618.0
16.1897455802 -84.869618463 -619.0
16.1897455802 -84.869618463 -620.0
16.1897455802 -84.869618463 -621.0
16.0023642656 -83.8873312122 -622.0
16.0023642656 -83.8873312122 -623.0
16.0023642656 -83.8873312122 -624.0
16.0023642656 -83.8873312122 -625.0
16.0023642656 -83.8873312122 -626.0
16.0023642656 -83.8873312122 -627.0
16.0023642656 -83.8873312122 -628.0
16.0023642656 -83.8873312122 -629.0
16.0023642656 -83.8873312122 -630.0
15.814982951 -82.9050439615 -631.0
16.0023642656 -83.8873312122 -632.0
16.0023642656 -83.8873312122 -633.0
15.814982951 -82.9050439615 -634.0
15.814982951 -82.9050439615 -635.0
15.814982951 -82.9050439615 -636.0
15.814982951 -82.9050439615 -637.0
15.6276016364 -81.9227567108 -638.0
15.6276016364 -81.9227567108 -639.0
15.6276016364 -81.9227567108 -640.0
15.6276016364 -81.9227567108 -641.0
15.6276016364 -81.9227567108 -642.0
15.6276016364 -81.9227567108 -643.0
15.4402203219 -80.94046946 -644.0
15.4402203219 -80.94046946 -645.0
15.4402203219 -80.94046946 -646.0
15.4402203219 -80.94046946 -647.0
15.4402203219 -80.94046946 -648.0
15.6276016364 -81.9227567108 -649.0
15.6276016364 -81.9227567108 -650.0
15.4402203219 -80.94046946 -651.0
15.2528390073 -79.9581822093 -652.0
15.2528390073 -79.9581822093 -653.0
15.2528390073 -79.9581822093 -654.0
15.2528390073 -79.9581822093 -655.0
15.2528390073 -79.9581822093 -656.0
15.2528390073 -79.9581822093 -657.0
15.2528390073 -79.9581822093 -658.0
15.2528390073 -79.9581822093 -659.0
15.2528390073 -79.9581822093 -660.0
15.2528390073 -79.9581822093 -661.0
15.2528390073 -79.9581822093 -662.0
15.0654576927 -78.9758949586 -663.0
15.0654576927 -78.9758949586 -664.0
15.0654576927 -78.9758949586 -665.0
15.0654576927 -78.9758949586 -666.0
14.8780763781 -77.9936077079 -667.0
15.0654576927 -78.9758949586 -668.0
15.0654576927 -78.9758949586 -669.0
14.8780763781 -77.9936077079 -670.0
14.8780763781 -77.9936077079 -671.0
14.8780763781 -77.9936077079 -672.0
14.8780763781 -77.9936077079 -673.0
14.8780763781 -77.9936077079 -674.0
14.8780763781 -77.9936077079 -675.0
14.6906950635 -77.0113204571 -676.0
14.6906950635 -77.0113204571 -677.0
14.6906950635 -77.0113204571 -678.0
14.6906950635 -77.0113204571 -679.0
14.6906950635 -77.0113204571 -680.0
14.6906950635 -77.0113204571 -681.0
14.6906950635 -77.0113204571 -682.0
14.6906950635 -77.0113204571 -683.0
14.5033137489 -76.0290332064 -684.0
14.5033137489 -76.0290332064 -685.0
14.5033137489 -76.0290332064 -686.0
14.5033137489 -76.0290332064 -687.0
14.5033137489 -76.0290332064 -688.0
14.3159324343 -75.0467459557 -689.0
14.3159324343 -75.0467459557 -690.0
14.3159324343 -75.0467459557 -691.0
14.3159324343 -75.0467459557 -692.0
14.3159324343 -75.0467459557 -693.0
14.3159324343 -75.0467459557 -694.0
14.3159324343 -75.0467459557 -695.0
14.3159324343 -75.0467459557 -696.0
14.3159324343 -75.0467459557 -697.0
14.1285511198 -74.0644587049 -698.0
14.1285511198 -74.0644587049 -699.0
14.1285511198 -74.0644587049 -700.0
14.1285511198 -74.0644587049 -701.0
14.1285511198 -74.0644587049 -702.0
13.9411698052 -73.0821714542 -703.0
13.9411698052 -73.0821714542 -704.0
13.9411698052 -73.0821714542 -705.0
13.9411698052 -73.0821714542 -706.0
13.9411698052 -73.0821714542 -707.0
13.9411698052 -73.0821714542 -708.0
13.9411698052 -73.0821714542 -709.0
13.9411698052 -73.0821714542 -710.0
13.9411698052 -73.0821714542 -711.0
13.9411698052 -73.0821714542 -712.0
13.7537884906 -72.0998842035 -713.0
13.7537884906 -72.0998842035 -714.0
13.7537884906 -72.0998842035 -715.0
13.7537884906 -72.0998842035 -716.0
13.7537884906 -72.0998842035 -717.0
13.7537884906 -72.0998842035 -718.0
13.7537884906 -72.0998842035 -719.0
13.7537884906 -72.0998842035 -720.0
13.7537884906 -72.0998842035 -721.0
13.566407176 -71.1175969528 -722.0
13.566407176 -71.1175969528 -723.0
13.566407176 -71.1175969528 -724.0
13.566407176 -71.1175969528 -725.0
13.566407176 -71.1175969528 -726.0
13.3790258614 -70.135309702 -727.0
13.3790258614 -70.135309702 -728.0
13.3790258614 -70.135309702 -729.0
13.3790258614 -70.135309702 -730.0
13.3790258614 -70.135309702 -731.0
13.3790258614 -70.135309702 -732.0
13.3790258614 -70.135309702 -733.0
13.3790258614 -70.135309702 -734.0
13.3790258614 -70.135309702 -735.0
13.3790258614 -70.135309702 -736.0
13.1916445468 -69.1530224513 -737.0
13.1916445468 -69.1530224513 -738.0
13.1916445468 -69.1530224513 -739.0
13.1916445468 -69.1530224513 -740.0
13.1916445468 -69.1530224513 -741.0
13.1916445468 -69.1530224513 -742.0
13.1916445468 -69.1530224513 -743.0
13.1916445468 -69.1530224513 -744.0
13.0042632322 -68.1707352006 -745.0
13.0042632322 -68.1707352006 -746.0
13.0042632322 -68.1707352006 -747.0
13.8367889855 -109.529463025 -279.0
13.7114557519 -108.537348324 -280.0
13.7114557519 -108.537348324 -281.0
13.7114557519 -108.537348324 -282.0
13.7114557519 -108.537348324 -283.0
13.7114557519 -108.537348324 -284.0
13.8367889855 -109.529463025 -285.0
13.8367889855 -109.529463025 -286.0
13.8367889855 -109.529463025 -287.0
13.8367889855 -109.529463025 -288.0
13.8367889855 -109.529463025 -289.0
13.8367889855 -109.529463025 -290.0
13.8367889855 -109.529463025 -291.0
13.8367889855 -109.529463025 -292.0
13.8367889855 -109.529463025 -293.0
13.8367889855 -109.529463025 -294.0
13.9621222191 -110.521577726 -295.0
13.9621222191 -110.521577726 -296.0
13.8367889855 -109.529463025 -297.0
13.8367889855 -109.529463025 -298.0
13.8367889855 -109.529463025 -299.0
13.9621222191 -110.521577726 -300.0
13.9621222191 -110.521577726 -301.0
13.9621222191 -110.521577726 -302.0
13.9621222191 -110.521577726 -303.0
13.9621222191 -110.521577726 -304.0
13.9621222191 -110.521577726 -305.0
13.9621222191 -110.521577726 -306.0
13.9621222191 -110.521577726 -307.0
13.9621222191 -110.521577726 -308.0
13.9621222191 -110.521577726 -309.0
13.9621222191 -110.521577726 -310.0
13.9621222191 -110.521577726 -311.0
13.9621222191 -110.521577726 -312.0
13.9621222191 -110.521577726 -313.0
14.0874554526 -111.513692428 -314.0
14.0874554526 -111.513692428 -315.0
14.0874554526 -111.513692428 -316.0
14.0874554526 -111.513692428 -317.0
14.0874554526 -111.513692428 -318.0
14.0874554526 -111.513692428 -319.0
14.0874554526 -111.513692428 -320.0
14.0874554526 -111.513692428 -321.0
14.0874554526 -111.513692428 -322.0
14.0874554526 -111.513692428 -323.0
14.0874554526 -111.513692428 -324.0
14.2127886862 -112.505807129 -325.0
14.4634551533 -114.490036532 -326.0
15.5914542554 -123.419068844 -327.0
15.5914542554 -123.419068844 -328.0
15.716787489 -124.411183545 -329.0
15.8421207225 -125.403298246 -330.0
15.8421207225 -125.403298246 -331.0
15.8421207225 -125.403298246 -332.0
15.716787489 -124.411183545 -333.0
15.8421207225 -125.403298246 -334.0
15.8421207225 -125.403298246 -335.0
15.8421207225 -125.403298246 -336.0
15.8421207225 -125.403298246 -337.0
15.8421207225 -125.403298246 -338.0
15.716787489 -124.411183545 -339.0
15.716787489 -124.411183545 -340.0
15.5914542554 -123.419068844 -341.0
15.5914542554 -123.419068844 -342.0
15.5914542554 -123.419068844 -343.0
15.5914542554 -123.419068844 -344.0
15.5914542554 -123.419068844 -345.0
15.5914542554 -123.419068844 -346.0
15.5914542554 -123.419068844 -347.0
15.716787489 -124.411183545 -348.0
15.716787489 -124.411183545 -349.0
15.8421207225 -125.403298246 -350.0
15.8421207225 -125.403298246 -351.0
15.716787489 -124.411183545 -352.0
15.716787489 -124.411183545 -353.0
15.716787489 -124.411183545 -354.0
15.8421207225 -125.403298246 -355.0
15.8421207225 -125.403298246 -356.0
15.8421207225 -125.403298246 -357.0
15.8421207225 -125.403298246 -358.0
15.8421207225 -125.403298246 -359.0
15.8421207225 -125.403298246 -360.0
15.9674539561 -126.395412947 -361.0
15.9674539561 -126.395412947 -362.0
14.5887883869 -115.482151233 -363.0
14.4634551533 -114.490036532 -364.0
14.4634551533 -114.490036532 -365.0
14.4634551533 -114.490036532 -366.0
14.4634551533 -114.490036532 -367.0
14.4634551533 -114.490036532 -368.0
14.4634551533 -114.490036532 -369.0
14.4634551533 -114.490036532 -370.0
14.4634551533 -114.490036532 -371.0
14.3381219198 -113.49792183 -372.0
14.3381219198 -113.49792183 -373.0
14.3381219198 -113.49792183 -374.0
14.3381219198 -113.49792183 -375.0
14.3381219198 -113.49792183 -376.0
14.3381219198 -113.49792183 -377.0
14.3381219198 -113.49792183 -378.0
14.3381219198 -113.49792183 -379.0
14.3381219198 -113.49792183 -380.0
14.2127886862 -112.505807129 -381.0
14.2127886862 -112.505807129 -382.0
14.2127886862 -112.505807129 -383.0
14.2127886862 -112.505807129 -384.0
14.0874554526 -111.513692428 -385.0
14.2127886862 -112.505807129 -386.0
14.2127886862 -112.505807129 -387.0
14.0874554526 -111.513692428 -388.0
14.0874554526 -111.513692428 -389.0
14.0874554526 -111.513692428 -390.0
14.0874554526 -111.513692428 -391.0
14.0874554526 -111.513692428 -392.0
13.9621222191 -110.521577726 -393.0
13.9621222191 -110.521577726 -394.0
14.0874554526 -111.513692428 -395.0
14.0874554526 -111.513692428 -396.0
13.9621222191 -110.521577726 -397.0
13.9621222191 -110.521577726 -398.0
13.9621222191 -110.521577726 -399.0
13.9621222191 -110.521577726 -400.0
13.9621222191 -110.521577726 -401.0
13.8367889855 -109.529463025 -402.0
13.8367889855 -109.529463025 -403.0
13.8367889855 -109.529463025 -404.0
13.8367889855 -109.529463025 -405.0
13.8367889855 -109.529463025 -406.0
13.8367889855 -109.529463025 -407.0
13.8367889855 -109.529463025 -408.0
13.8367889855 -109.529463025 -409.0
13.8367889855 -109.529463025 -410.0
13.8367889855 -109.529463025 -411.0
13.8367889855 -109.529463025 -412.0
13.7114557519 -108.537348324 -413.0
13.7114557519 -108.537348324 -414.0
13.7114557519 -108.537348324 -415.0
13.7114557519 -108.537348324 -416.0
13.7114557519 -108.537348324 -417.0
13.7114557519 -108.537348324 -418.0
13.7114557519 -108.537348324 -419.0
13.5861225184 -107.545233622 -420.0
13.5861225184 -107.545233622 -421.0
13.5861225184 -107.545233622 -422.0
13.5861225184 -107.545233622 -423.0
13.5861225184 -107.545233622 -424.0
13.5861225184 -107.545233622 -425.0
13.5861225184 -107.545233622 -426.0
13.5861225184 -107.545233622 -427.0
13.5861225184 -107.545233622 -428.0
13.4607892848 -106.553118921 -429.0
13.4607892848 -106.553118921 -430.0
13.4607892848 -106.553118921 -431.0
13.5861225184 -107.545233622 -432.0
13.4607892848 -106.553118921 -433.0
13.4607892848 -106.553118921 -434.0
13.4607892848 -106.553118921 -435.0
13.4607892848 -106.553118921 -436.0
13.4607892848 -106.553118921 -437.0
13.4607892848 -106.553118921 -438.0
13.4607892848 -106.553118921 -439.0
13.3354560512 -105.56100422 -440.0
13.3354560512 -105.56100422 -441.0
13.3354560512 -105.56100422 -442.0
13.3354560512 -105.56100422 -443.0
13.3354560512 -105.56100422 -444.0
13.3354560512 -105.56100422 -445.0
13.2101228177 -104.568889519 -446.0
13.2101228177 -104.568889519 -447.0
13.2101228177 -104.568889519 -448.0
13.2101228177 -104.568889519 -449.0
13.2101228177 -104.568889519 -450.0
13.2101228177 -104.568889519 -451.0
13.0847895841 -103.576774817 -452.0
13.2101228177 -104.568889519 -453.0
13.2101228177 -104.568889519 -454.0
13.0847895841 -103.576774817 -455.0
13.0847895841 -103.576774817 -456.0
13.0847895841 -103.576774817 -457.0
13.0847895841 -103.576774817 -458.0
13.0847895841 -103.576774817 -459.0
13.0847895841 -103.576774817 -460.0
13.0847895841 -103.576774817 -461.0
13.0847895841 -103.576774817 -462.0
13.0847895841 -103.576774817 -463.0
13.0847895841 -103.576774817 -464.0
13.0847895841 -103.576774817 -465.0
12.9594563505 -102.584660116 -466.0
12.9594563505 -102.584660116 -467.0
12.9594563505 -102.584660116 -468.0
12.9594563505 -102.584660116 -469.0
12.9594563505 -102.584660116 -470.0
12.9594563505 -102.584660116 -471.0
12.9594563505 -102.584660116 -472.0
12.9594563505 -102.584660116 -473.0
12.9594563505 -102.584660116 -474.0
12.834123117 -101.592545415 -475.0
12.834123117 -101.592545415 -476.0
12.834123117 -101.592545415 -477.0
12.834123117 -101.592545415 -478.0
12.834123117 -101.592545415 -479.0
12.834123117 -101.592545415 -480.0
12.834123117 -101.592545415 -481.0
12.834123117 -101.592545415 -482.0
12.7087898834 -100.600430713 -483.0
12.7087898834 -100.600430713 -484.0
12.7087898834 -100.600430713 -485.0
12.7087898834 -100.600430713 -486.0
12.7087898834 -100.600430713 -487.0
12.7087898834 -100.600430713 -488.0
12.7087898834 -100.600430713 -489.0
12.7087898834 -100.600430713 -490.0
12.7087898834 -100.600430713 -491.0
12.5834566499 -99.608316012 -492.0
12.5834566499 -99.608316012 -493.0
12.5834566499 -99.608316012 -494.0
12.5834566499 -99.608316012 -495.0
12.5834566499 -99.608316012 -496.0
12.5834566499 -99.608316012 -497.0
12.5834566499 -99.608316012 -498.0
12.5834566499 -99.608316012 -499.0
12.4581234163 -98.6162013107 -500.0
12.4581234163 -98.6162013107 -501.0
12.4581234163 -98.6162013107 -502.0
12.4581234163 -98.6162013107 -503.0
12.4581234163 -98.6162013107 -504.0
12.4581234163 -98.6162013107 -505.0
12.4581234163 -98.6162013107 -506.0
12.4581234163 -98.6162013107 -507.0
12.3327901827 -97.6240866093 -508.0
12.3327901827 -97.6240866093 -509.0
12.3327901827 -97.6240866093 -510.0
12.3327901827 -97.6240866093 -511.0
12.3327901827 -97.6240866093 -512.0
12.3327901827 -97.6240866093 -513.0
12.3327901827 -97.6240866093 -514.0
12.2074569492 -96.631971908 -515.0
12.2074569492 -96.631971908 -516.0
12.2074569492 -96.631971908 -517.0
12.2074569492 -96.631971908 -518.0
12.2074569492 -96.631971908 -519.0
12.2074569492 -96.631971908 -520.0
12.2074569492 -96.631971908 -521.0
12.2074569492 -96.631971908 -522.0
12.2074569492 -96.631971908 -523.0
12.2074569492 -96.631971908 -524.0
12.2074569492 -96.631971908 -525.0
12.0821237156 -95.6398572067 -526.0
12.0821237156 -95.6398572067 -527.0
12.0821237156 -95.6398572067 -528.0
12.0821237156 -95.6398572067 -529.0
12.0821237156 -95.6398572067 -530.0
12.0821237156 -95.6398572067 -531.0
11.956790482 -94.6477425054 -532.0
11.956790482 -94.6477425054 -533.0
11.956790482 -94.6477425054 -534.0
11.956790482 -94.6477425054 -535.0
